ncols        132
nrows        31
xllcorner    2292.5
yllcorner    -4327.5
cellsize     5.000000000000
NODATA_value -9999
37.102078658019635782 36.1409326895667391 35.192513834762685576 34.256809814433175632 33.333809216789724417 32.423501439945916047 31.525876639191466211 30.640925678450606995 29.768640085409376894 28.909012009873094939 28.06203418496517088 27.227699890837733676 26.406002920613058649 25.596937548310819466 24.800498498567293382 24.016680917970280262 23.245480347878910266 22.486892698606766317 21.740914224884214434 21.00754150251690433 20.286771406188201183 19.578601088349049775 18.883027959164259357 18.200049667474193171 17.529664082751903464 16.871869278023975625 16.226663513739868705 15.594045222559666186 14.974012995047637276 14.366565566241016327 13.771701803074387627 13.189420692634882926 12.61972133121807893 12.06260291416162822 11.518064726420341515 10.986106133858138278 10.466726575218359585 9.9599255547453200421 9.4657026354164806037 8.984057432758202566 8.5149896092028320993 8.058498868961276429 7.6145849533688503286 7.1832476366791340183 6.7644867222655733485 6.3583020392079063754 5.9646934392251038659 5.583660793932367028 5.2152039923916673203 4.8593229389294201326 4.516017551199665192 4.18528775846575396 3.8671335000839301976 3.5615547241641696274 3.2685513863942468049 2.9881234490056693964 2.720270879871558023 2.4649936517150106141 2.2222917414240455081 1.9921651294513078589 1.7746137992981978471 1.5696377370641347859 1.3772369310621892513 1.1974113714832157473 1.0301610501117919316 0.8754859600791591312 0.7333860956534876685 0.60386145206216046422 0.48691202533678845654 0.38253781218582333379 0.29073880988280642601 0.21151501617484372297 0.14486642920261891265 0.090793047435965751335 0.049294869616461990669 0.02037189471273847044 0.0040241218792962862513 4.6457163716029289144e-08 3.6908999019401395044e-08 2.9273844382290461436e-08 2.3179010158227294934e-08 1.8322189209574643031e-08 1.4458622530143789382e-08 1.139051299545748919e-08 8.958312193066592095e-09 7.0335630721049286596e-09 5.5130332102468860812e-09 4.313915327406650236e-09 3.369908801854746585e-09 2.6280279568768837302e-09 2.0460057959545912769e-09 1.5901883538970546169e-09 1.2338286386074040182e-09 9.5570867282838639346e-10 7.3902704320731892512e-10 5.7050450081232789396e-10 4.3966465736495596716e-10 3.382575603898968199e-10 2.5979853288511083958e-10 1.9919987916949919068e-10 1.5247704731218389029e-10 1.1651513412021534509e-10 8.8883868723550770547e-11 6.769013127622868633e-11 5.1462483895355263002e-11 3.9058611316543781944e-11 2.9594137132890515556e-11 2.2384940402489251383e-11 1.6903177175471710105e-11 1.274209771566333727e-11 9.589045763727400923e-12 7.2038784027924111768e-12 5.4029088020744100036e-12 4.0452012974246722314e-12 3.0235711457199555327e-12 2.2560956568457814468e-12 1.680591315709968234e-12 1.2497045573662386566e-12 9.2774122594824982788e-13 6.8749603360391013085e-13 5.0871842772160140161e-13 3.7565797849234678105e-13 2.7696210339152438448e-13 2.0393738336876554869e-13 1.498336342202650031e-13 1.0994618210701138678e-13 8.0490832854151585138e-14 5.8808422987465104989e-14 4.2955717660407953317e-14 3.1296308581153613009e-14 2.2705165049071788212e-14 1.6568633954727861596e-14
37.099931105735265646 36.139003636226142646 35.19078323732652791 34.255259254946906822 33.332421786707577382 32.422261632258610575 31.524770247695926173 30.639939703581461572 29.767762646123092196 28.908232261137769115 28.061342240462792574 27.227086750531931614 26.405460402875021941 25.59645822632955614 24.800075640798763033 24.016308432403441486 23.245152729916412682 22.486604982373986417 21.74066193779356837 21.007320622924979148 20.286578323991879103 19.578432568373852263 18.882881107203793647 18.199921898844308998 17.529553093227296046 16.871773017028370845 16.226580159664266034 15.593973160086173735 14.973950794359470962 14.366511964002407709 13.771655685067361929 13.189381077943275855 12.619687357852784615 12.062573826024857837 11.518039861510651178 10.986084913622123693 10.466708494959229725 9.9599101750029745972 9.4656895742381710335 8.9840463587834218373 8.5149802354906043433 8.0584909474925510153 7.6145782701611528509 7.1832420074549974132 6.7644819886205524995 6.3582980652280847167 5.9646901085079857552 5.5836580069688226402 5.2152016642702401228 4.8593209973276936253 4.516015934630629225 4.1852864147501120939 3.8671323850221108742 3.5615538003844200432 3.2685506223555917948 2.9881228181367625041 2.7202703598284734277 2.4649932237429039716 2.2222913898093001883 1.9921648410523267181 1.7746135631443886727 1.5696375440138914392 1.3772367735117927445 1.1974112431195853556 1.0301609457029132777 0.87548587529681287656 0.73338602692360344015 0.6038613964387509192 0.48691198039596250702 0.38253777593686022485 0.29073878069369502031 0.21151499271005932967 0.1448664103712307416 0.090793032348446003899 0.049294857548809530023 0.020371885076737143716 0.0040241141979080853955 4.0344210374898577026e-08 3.2052417800655549486e-08 2.5421916490519754916e-08 2.0129056262783719041e-08 1.59113083324582463e-08 1.2556119714417060111e-08 9.8917199397324513069e-09 7.7795543873457027286e-09 6.108068716260239592e-09 4.7876140923655140346e-09 3.7462792309213039382e-09 2.9264875168877044165e-09 2.282225265454327077e-09 1.7767870804390646182e-09 1.3809472721259930489e-09 1.0714782865716661355e-09 8.2995406264966702595e-10 6.4178396027687977947e-10 4.9543604831902680251e-10 3.8181244866686232324e-10 2.9374875885333338867e-10 2.2561357238842471004e-10 1.7298864570057346108e-10 1.3241372447079226501e-10 1.0118377249585185377e-10 7.7188300209973899767e-11 5.8783289355388231953e-11 4.4690917637950506292e-11 3.3919178579681227592e-11 2.5700064300467693803e-11 1.9439472255021930076e-11 1.4679013560731853084e-11 1.1065459659963461349e-11 8.3272944097452788117e-12 6.2559735170916792343e-12 4.6919801378015437293e-12 3.5129232856269066737e-12 2.6257218621756689729e-12 1.9592327760255188836e-12 1.4594547792562458624e-12 1.0852652110343491893e-12 8.0566664451150711712e-13 5.9703353372325988401e-13 4.4177994595930003689e-13 3.2622793355610617151e-13 2.4051871605492963233e-13 1.7710277688827835937e-13 1.3011813848610818086e-13 9.5479180117785007845e-14 6.9899641630411369368e-14 5.1070259132763341353e-14 3.7303493627408503554e-14 2.7178259642825590954e-14 1.9717560917343672517e-14 1.4388490399142520382e-14
37.097944201967905542 36.137218847925097975 35.189182031852709542 34.253824600875930173 33.331138047217862663 32.421114465673397831 31.523746514576906463 30.639027379845497734 29.766950741718282814 28.90751074387151931 28.060701964623358862 27.226519389987103636 26.404958388367376187 25.596014686718390863 24.799684348024332081 24.015963749970669738 23.244849564712911416 22.486338739651792196 21.740428479155930575 21.007116227169134959 20.286399650666538719 19.578276623916433863 18.88274521352757418 18.199803664249941448 17.529450385516728517 16.871683938702414451 16.226503025087978926 15.593906474508987259 14.973893234679847453 14.366462361169570983 13.771613008015677337 13.189344418957963612 12.619655919268957689 12.06254690816536268 11.518016851771879061 10.986065276620754716 10.466691763656870151 9.9598959427296911429 9.4656774875400930824 8.9840361110237498821 8.5149715611375906832 8.058483617032171864 7.6145720855763219248 7.1832367982172398158 6.7644776081439550453 6.358294387739205078 5.9646870262890248071 5.5836554279349268626 5.2151995098450907307 4.8593192005847480885 4.5160144386703269248 4.1852851712861651734 3.8671313531526001483 3.5615529455258276847 3.2685499153201544864 2.988122234335568006 2.7202698785846304297 2.4649928277008270605 2.2222910644277322767 1.9921645741701365928 1.7746133446094762842 1.5696373653666855219 1.3772366277158705206 1.1974111243328708909 1.0301608490837417254 0.87548579683988281275 0.73338596332149785795 0.60386134496527599236 0.48691193880806821204 0.38253774239234883403 0.29073875368231599792 0.21151497099592850293 0.14486639294480907481 0.090793018386571375244 0.049294846381496823517 0.020371876159655678135 0.0040241070896105644861 3.4687330400747629945e-08 2.7558174918452194703e-08 2.1857372064644043678e-08 1.7306652400738201554e-08 1.3680297723050014453e-08 1.0795558250422959113e-08 8.5047483806337182064e-09 6.6887409855835576692e-09 5.2516233618909350692e-09 4.1163168234312179811e-09 3.2209931556962215355e-09 2.5161488722935794915e-09 1.9622221160627272038e-09 1.5276541529699833789e-09 1.1873171853435288971e-09 9.2124052022142948322e-10 7.135817141782231718e-10 5.5179595970045483385e-10 4.2596828009652005377e-10 3.2827645995889220093e-10 2.5256065644388499049e-10 1.9397907302664618865e-10 1.4873297196576878113e-10 1.1384727991738699709e-10 8.6996248436286024921e-11 6.6365311114664487615e-11 5.0540966387417584059e-11 3.8424562336195402625e-11 2.916318707720696774e-11 2.2096519269479171646e-11 1.6713758699187357771e-11 1.2620789668443734354e-11 9.5139117063455294396e-12 7.1596794169980503553e-12 5.3787896307820160396e-12 4.0340922230717441496e-12 3.0203573098319652141e-12 2.2575551969654317622e-12 1.6845181507216049396e-12 1.254816730251827695e-12 9.3309430543656690032e-13 6.9269976631553741616e-13 5.1332023251799781309e-13 3.7983559008384379624e-13 2.8048575037747887396e-13 2.0679428587586734065e-13 1.5227023856588560806e-13 1.1187357046088161672e-13 8.2091527812585691782e-14 6.0098634780000909204e-14 4.3909421853238968948e-14 3.2072969005842977142e-14 2.3367448847113642462e-14 1.6952855045944918923e-14 1.2371002330824510746e-14
37.096115065849616599 36.135575746351712212 35.187707912983555048 34.252503792961149998 33.32995616079415413 32.420058302290804875 31.522803981510179483 30.638187410310514736 29.766203220172659627 28.906846436029475456 28.060112451859335891 27.225997007840547326 26.404496168893789587 25.595606304459273872 24.799324069391918357 24.015646385862641665 23.2445704261884174 22.486093596513150317 21.740213521291174459 21.006928028519187279 20.286235135687835651 19.578133036415461987 18.882620087748410498 18.199694798099695703 17.52935581581703417 16.871601918357946204 16.226432002065660498 15.593845072524025852 14.973840235487260841 14.366416688362484422 13.771573712234323139 13.189310664416224128 12.619626971508271396 12.062522122949053127 11.517995665036300679 10.986047195403168431 10.46667635792362816 9.9598828380319979203 9.4656663584284856938 8.9840266751562403158 8.5149635740203049039 8.0584768673351696577 7.6145663909710421535 7.1832320016857833522 6.7644735747140227744 6.3582910016020068866 5.9646841882608958585 5.5836530532265760129 5.2151975261055154576 4.8593175461897395451 4.5160130612282527451 4.1852840263362640627 3.8671304030334407997 3.561552158393799683 3.2685492642999145474 2.9881216967862767042 2.7202694354675354127 2.464992463035348802 2.222290764824652598 1.9921643284317962497 1.77461314338807985 1.5696372008728753933 1.3772364934706877726 1.1974110149570806882 1.0301607601192614982 0.87548572459873352791 0.733385904758293794 0.60386129756980710948 0.48691190051499089186 0.38253771150541426849 0.29073872881092388543 0.21151495100210801481 0.14486637689900233594 0.090793005530831596972 0.049294836098918735912 0.020371867949033402312 0.0040241005444706301128 2.9478618903066558455e-08 2.3419990144593792306e-08 1.857523003163151212e-08 1.4707854561893597451e-08 1.1626039780565420089e-08 9.1744779402004153865e-09 7.2276601724917343279e-09 5.6843476917373580136e-09 4.4630302174498586176e-09 3.4982033367125565297e-09 2.7373230701583410226e-09 2.1383194633423950994e-09 1.6675713382452794687e-09 1.2982588767085476301e-09 1.0090275160434165569e-09 7.8290539821542867654e-10 6.0642900940193598714e-10 4.689372927932957264e-10 3.6200412230800104209e-10 2.7898188037605657433e-10 2.1463569715778189621e-10 1.6485082894280119582e-10 1.2639896323416035591e-10 9.6751769015296697711e-11 7.3932736381706810088e-11 5.6399777458503461495e-11 4.2951644600344769894e-11 3.265466142331382154e-11 2.4783990815529899739e-11 1.877846646802182321e-11 1.4203990839445416136e-11 1.0725629349062185837e-11 8.0852857311384812035e-12 6.0845691673984574776e-12 4.5711009724373152357e-12 3.428325729315471281e-12 2.5668150613419670742e-12 1.9185566762311759013e-12 1.4315678963879713888e-12 1.0663912087320238405e-12 7.9297919787519561642e-13 5.8868273213202387186e-13 4.3623914953032088179e-13 3.2279879942919141852e-13 2.3836750910798156374e-13 1.7574168654078046116e-13 1.2940506756361310828e-13 9.5074435296224838717e-14 6.9764517367531430156e-14 5.1074116435575721712e-14 3.7315904638443076837e-14 2.7256834692427156924e-14 1.9858550990196477478e-14 1.4407184051710896525e-14 1.0513350524221344827e-14
37.094441105876121867 36.134072011940368441 35.186358806530208199 34.251294978284583692 33.328874473911575649 32.419091668124984551 31.521941336034952741 30.637418627701574536 29.765519044583289343 28.90623841765706814 28.059572887008336295 27.225518882721836178 26.404073106929875081 25.595232516889510066 24.798994308992860169 24.015355903616196542 23.244314930744678804 22.48586921630683122 21.740016769180002143 21.006755768820490005 20.286084553495832949 19.578001609086737034 18.882505558447320482 18.199595151298709084 17.52926925465000707 16.871526843726865508 16.226366993403726013 15.59378887012020698 14.973791724279745807 14.366374883110786698 13.771537743982229074 13.189279768160371731 12.619600474989919547 12.062499436489495963 11.517976272339438992 10.986030645252009563 10.46666225670072059 9.959870842997336382 9.465656171691788856 8.9840180382841410278 8.5149562632224391479 8.0584706891766977321 7.6145611785626297063 7.183227611305442295 6.7644698828185454431 6.3582879021889526783 5.9646815905451564532 5.5836508795985313469 5.215195710340586821 4.8593160318818302557 4.5160118004220519694 4.1852829783357758942 3.8671295333662527582 3.5615514379126875788 3.2685486684052289519 2.9881212047543095345 2.7202690298716545314 2.464992129248143371 2.2222904905906455397 1.9921641035014978627 1.7746129592052257706 1.5696370503076766401 1.3772363705927954669 1.1974109148427498628 1.0301606786879011768 0.8754856584746459891 0.73338585115396326408 0.60386125418757718997 0.48691186546440223815 0.38253768323384890193 0.29073870604553136987 0.21151493270127591506 0.14486636221188362028 0.090792993763659055051 0.049294826687023923784 0.020371860433650339911 0.0040240945535442232406 2.4710958077746671262e-08 1.9632208570383208805e-08 1.5571005281652367352e-08 1.2329111439373267626e-08 9.7457273223263119496e-09 7.6906635465911923016e-09 6.0587101499278145376e-09 4.7650019832341514112e-09 3.7412116553846263481e-09 2.9324289683594631734e-09 2.2946080299272613685e-09 1.7924829789545037138e-09 1.3978702861058279621e-09 1.0882877786439484429e-09 8.4583462799964350886e-10 6.5628388297702369498e-10 5.0834952211078257049e-10 3.930947316104642621e-10 3.0345616671478995577e-10 2.3386134793743540291e-10 1.7992205581658028128e-10 1.381890358371472166e-10 1.0595609965788836009e-10 8.1103830423615668011e-11 6.1975384794348198354e-11 4.7278081150147971104e-11 3.6004953041556088326e-11 2.7373330219932650144e-11 2.077560553964158193e-11 1.574137171381475853e-11 1.1906739030266010761e-11 8.9909428299543256502e-12 6.7776294897668894552e-12 5.1004945023359184498e-12 3.8318038201393022174e-12 2.8738528650940064467e-12 2.151676766045507066e-12 1.6082630520446977789e-12 1.2000363516895783157e-12 8.9392072763679673827e-13 6.6472841839000218429e-13 4.9347340070478783121e-13 3.6568495199382374155e-13 2.7059163213576613757e-13 1.9981565436960169371e-13 1.4731848408188769251e-13 1.0847601819026641512e-13 7.9697776654324477213e-14 5.8481303688322065292e-14 4.2813754421122371143e-14 3.1280697321657378754e-14 2.2848509347992491296e-14 1.6646771096394076882e-14 1.2077069226795539495e-14 8.8129964627966247891e-15
37.092919999926550645 36.13270556605697692 35.185132853598389602 34.2501964961340164 33.327891504469242534 32.418213241921421286 31.521157401620865102 30.636719985585941117 29.764897285351452183 28.905685863968546556 28.059082539209839524 27.225084367841841271 26.403688630847319985 25.594892819491498415 24.798694622155004197 24.015091911854767659 23.244082734402770285 22.485665297147136243 21.739837958265514573 21.006599216571338218 20.285947701816006372 19.577882165459083552 18.882401471898660361 18.199504590140165305 17.529190585900053634 16.871458614126940034 16.226307911938334883 15.593737791955492256 14.973747636036499387 14.366336889389968334 13.77150505506331335 13.189251688795147643 12.619576394216858617 12.062478818396435543 11.51795864770514477 10.986015604000023416 10.466649441101990803 9.9598599415611506203 9.4656469136877756654 8.9840101888412178255 8.5149496189538762536 8.058465074283594376 7.614556441371304274 7.1832236211972926299 6.7644665275139805871 6.3582850853499008892 5.9646792296634805197 5.5836489041403423172 5.2151940601190478475 4.8593146556334181341 4.5160106545635638753 4.1852820258814809051 3.8671287429865999208 3.5615507831178110365 3.2685481268382319264 2.9881207575808677035 2.7202686612539239697 2.4649918258922935976 2.2222902413585319259 1.992163899078076561 1.7746127918143066449 1.5696369134694938552 1.3772362589176694314 1.1974108238558334172 1.0301606046806301986 0.87548559837908523917 0.73338580243673445747 0.60386121476050103052 0.48691183360937229097 0.38253765753979940278 0.29073868535565750015 0.21151491606892885988 0.14486634886378807474 0.090792983069298477394 0.04929481813321062722 0.020371853603444001896 0.0040240891088099773124 2.0377964412559037711e-08 1.6189758662762193843e-08 1.2840675400906561559e-08 1.01672380886976001e-08 8.0368427621913135481e-09 6.3421283622768006072e-09 4.9963331835303501437e-09 3.929472930630987124e-09 3.0852012191071814812e-09 2.4182361923224236183e-09 1.8922552754271531542e-09 1.4781763720934658327e-09 1.1527578517846045299e-09 8.9745972448643430388e-10 6.9752001915621298455e-10 5.4120643855570997473e-10 4.1921193181738881269e-10 3.2416672910712324552e-10 2.5024602234779758129e-10 1.9285444990569539537e-10 1.4837325366698621506e-10 1.1395799572883178379e-10 8.7377009898890526874e-11 6.6882512820356639346e-11 5.1108183749213543672e-11 3.8988008977277775309e-11 2.9691590653873107094e-11 2.2573497451462368519e-11 1.7132664346416050882e-11 1.2981168583046742009e-11 9.8189274375996831206e-12 7.4144075064151926567e-12 5.5891921364697202524e-12 4.2061378255635224923e-12 3.1599083148987933304e-12 2.3699312361654867456e-12 1.774386587399631169e-12 1.3262588663831715117e-12 9.896135146467221771e-13 7.3717436296550545422e-13 5.481702495781213467e-13 4.0694429445289201554e-13 3.0156317355429578575e-13 2.2314418703637780296e-13 1.6477856835231102164e-13 1.2148662213394159948e-13 8.9455068144403105506e-14 6.5723006435073650087e-14 4.8226779466005701403e-14 3.5306488781157392421e-14 2.5795719249256170773e-14 1.8842090582064859941e-14 1.3727808852646877934e-14 9.9593907362338456772e-15 7.2676635102246182874e-15
37.091549677949139152 36.131474555558206418 35.184028396827123686 34.249206865747055417 33.327005930883444762 32.417421845458811447 31.520451129052222683 30.636090550726194692 29.764337113402479673 28.90518803934163472 28.058640756591962884 27.224692886297216177 26.403342230769176524 25.594586762238773048 24.798424612225364427 24.01485406145921786 23.243873530318534648 22.485481569734933061 21.73967685254490334 21.006458165253999226 20.285824400201740048 19.577774548103285213 18.882307690963305191 18.199422995342970921 17.529119705978732924 16.871397139737556614 16.226254679908524992 15.593691770815167885 14.973707912750455762 14.366302657218666283 13.771475602480101941 13.189226389390253047 12.619554697520742437 12.062460241557458218 11.517942767958965433 10.986002051870817908 10.466637894278232324 9.9598501193915147667 9.4656385722455773646 8.9840031165086813303 8.514943632480379776 8.0584600152749708002 7.6145521731700620549 7.1832200261164578237 6.7644635043899450366 6.3582825473823030293 5.9646771025126774646 5.5836471242554521766 5.2151925732718504847 4.8593134156355759501 4.5160096221466892175 4.185281167721496054 3.8671280308556297278 3.5615501931485282761 3.2685476388871084197 2.9881203546782044711 2.7202683291298468404 2.4649915525690815343 2.2222900168007320154 1.9921637148928474925 1.7746126409953122405 1.5696367901784735732 1.3772361582985295225 1.1974107418767427902 1.0301605380001774837 0.87548554423306468308 0.73338575854257592734 0.60386117923675763919 0.48691180490803254166 0.38253763438949478504 0.29073866671410847351 0.21151490108320616934 0.14486633683717162202 0.090792973433693732743 0.049294810426236151946 0.02037184744943711795 0.0040240842031116202254 1.6473942847967847151e-08 1.3088115846280303621e-08 1.0380651787184845094e-08 8.2193930571051533053e-09 6.4971400320920114157e-09 5.1270999434880592893e-09 4.0391329408610314857e-09 3.1766623584685373787e-09 2.4941366829929755425e-09 1.9549491806550106434e-09 1.5297359753562909801e-09 1.1949865346847242431e-09 9.3191187238898446008e-10 7.2552389987805578846e-10 5.6388875259193252152e-10 4.3752181321120127101e-10 3.3889908076146946174e-10 2.6206268994224900218e-10 2.0230375259203416352e-10 1.5590728897097548601e-10 1.1994782462288806286e-10 9.2125860613269894062e-11 7.0637274578837112128e-11 5.4069124453696919645e-11 4.1316849968860020043e-11 3.1518664905084149027e-11 2.4003259485854690261e-11 1.8248854470182739517e-11 1.3850379145567284614e-11 1.0494229209909316119e-11 7.9378119517077313331e-12 5.9939512633411169123e-12 4.518411651701525134e-12 3.4003236417084387594e-12 2.554531352605401222e-12 1.9158985144471099503e-12 1.4344486350389858456e-12 1.0721734677783800892e-12 8.0002281655064213388e-13 5.9594609554127382048e-13 4.4315149351341830617e-13 3.2898168407051492828e-13 2.4378953591896527649e-13 1.8039410170492359498e-13 1.3321020015319747866e-13 9.8212148656353840792e-14 7.2317217289785924276e-14 5.3131756935569491242e-14 3.8987466693332533279e-14 2.8542452360605615759e-14 2.085376125457108966e-14 1.5232312568555857915e-14 1.1097827728518966835e-14 8.051365214807714157e-15 5.8753205621569406463e-15
37.090328306991516172 36.13037733943924934 35.183043968486899189 34.248324775709754419 33.326216582651944975 32.416716435157972853 31.519821588972671833 30.635529496462620358 29.76383779431763088 28.904744292119584514 28.058246961672249853 27.224343927005659083 26.403033454981763128 25.594313946432500018 24.798183927784581471 24.014642043118215042 23.243687046631258397 22.485317795470869839 21.73953324291695921 21.006332431889504164 20.285714488772121911 19.577678617531390159 18.882224094130197756 18.1993502612183633 17.529056523101221643 16.871342340972539375 16.226207228413361605 15.593650747142680402 14.973672503023458091 14.366272142309918891 13.771449348133748103 13.189203837222722271 12.619535356841035778 12.062443681948877838 11.517928612566530333 10.985989971340950788 10.466627601299707706 9.9598413637891756167 9.4656311365808107894 8.983996812143235644 8.5149382960626986971 8.0584555056107447513 7.6145483684412553771 7.1832168214155354136 6.7644608095384697322 6.3582802850053887767 5.9646752063430588109 5.5836455376430906838 5.215191247877034364 4.8593123102854418605 4.5160087018369008405 4.1852804027465460024 3.8671273960528300684 3.5615496672422382041 3.2685472039211278528 2.9881199955255253187 2.72026803307011944 2.4649913089252093457 2.2222898166269828835 1.9921635507077333216 1.7746125065532942777 1.5696366802752501624 1.3772360686053159995 1.197410668799512079 1.0301604785603519776 0.87548549596659552829 0.73338571941475017013 0.60386114757042919088 0.48691177932328377764 0.38253761375301120751 0.29073865009678839799 0.2115148877247374215 0.14486632611648878055 0.090792964844389908996 0.049294803556138536149 0.02037184196367507194 0.004024079830108082817 1.299384707559745359e-08 1.0323270961269044159e-08 8.1877546329214374462e-09 6.483058575151559451e-09 5.1246289241915963693e-09 4.0440077539040233301e-09 3.1858721523100409756e-09 2.5055971896449693306e-09 1.9672540416140030937e-09 1.5419690921666673491e-09 1.2065815400861546028e-09 9.4254741774711601102e-10 7.3504688412424490145e-10 5.7225806190988805798e-10 4.4476809757170126561e-10 3.4509598500386611773e-10 2.6730715717696946225e-10 2.0670233891832605448e-10 1.595673876428877401e-10 1.2297210752073045935e-10 9.4609026196041485412e-11 7.2664410442613382967e-11 5.5715256046204813732e-11 4.2647102837612300598e-11 3.258872725149008292e-11 2.4860394117585291134e-11 1.8932606844930391216e-11 1.4393811276253713756e-11 1.0924507280805078726e-11 8.2773389959354539642e-12 6.260961057362194432e-12 4.727738030054060495e-12 3.5639039529462905676e-12 2.682010361631875973e-12 2.0148904277120218549e-12 1.5111678207785468209e-12 1.1314235078136143461e-12 8.4567842742276696643e-13 6.3101919394141457199e-13 4.7005337480544274865e-13 3.4953640376964187116e-13 2.5948479569460444414e-13 1.9228936133373270691e-13 1.4228611771401969321e-13 1.0506974474536684717e-13 7.7464979245956176055e-14 5.704031337386040871e-14 4.1907752804762355383e-14 3.0751422706563847483e-14 2.251290201866464927e-14 1.6448435401183612766e-14 1.2014509336516415268e-14 8.7534282308903055099e-15 6.3505263635869743357e-15 4.6341678869417666325e-15
37.089254278308686708 36.129412477332941478 35.182178280226537481 34.247549074822536852 33.325522432223344538 32.416096094850566089 31.519267965459643932 30.635036097009159306 29.76339868327575644 28.904354050130198317 28.057900647392578719 27.224037041201363252 26.402761906840890305 25.594074021973732158 24.797972260244900866 24.014455585215852551 23.243523044608458861 22.485173764828243037 21.739406945756950762 21.006221855791196162 20.285617827123395784 19.577594251247397494 18.882150574689660516 18.199286294951118492 17.529000956662244448 16.871294147939138952 16.226165496943675493 15.593614668634973697 14.973641361717099585 14.366245305770345198 13.771426258565282907 13.189184003554704105 12.619518347534468106 12.062429118472637768 11.517916163494140491 10.985979347020952801 10.466618549054786058 9.9598336636013673484 9.4656245972223782559 8.9839912677150213227 8.5149336029040316731 8.0584515395472582355 7.6145450223391506483 7.1832140030130622321 6.764458439527478717 6.3582782953379020086 5.9646735387397784578 5.5836441422826608161 5.2151900822466839003 4.8593113381753401114 4.5160078924621789298 4.1852797299824358035 3.8671268377697836094 3.5615492047292045541 3.2685468213863675402 2.9881196796654552195 2.720267772697714026 2.4649910946504012266 2.2222896405823671095 1.9921634063136481885 1.7746123883170437097 1.5696365836198649113 1.377235989723806675 1.1974106045310790591 1.0301604262854586747 0.87548545351821183136 0.73338568500342926626 0.60386111972118960978 0.48691175682254450585 0.38253759560406858098 0.29073863548253564559 0.21151487597651094652 0.14486631668808705453 0.09079295729044879748 0.04929479751416888933 0.020371837139171899977 0.0040240759842304699156 9.9332452927604796598e-09 7.8917030567129620244e-09 6.2591913462502974209e-09 4.9560234705165068399e-09 3.9175615848527107652e-09 3.0914725066126905216e-09 2.4354642146853372314e-09 1.9154228418795105074e-09 1.5038823250131723324e-09 1.1787700085416879185e-09 9.2238044169898893139e-10 7.2053754729604803151e-10 5.6191218506717770533e-10 4.374670309279475421e-10 3.4000635735399642266e-10 2.6381125228944162804e-10 2.0434499080033786544e-10 1.5801517621444680131e-10 1.2198250396405029072e-10 9.4006963545033226687e-11 7.2324590152655770576e-11 5.5548861617683144184e-11 4.2591951537943347159e-11 3.2601902354844464437e-11 2.4912700582906528528e-11 1.9004717497710233198e-11 1.4473175400249361533e-11 1.1003458582625278481e-11 8.3513227381440251011e-12 6.3276747949578916783e-12 4.7862393329955472128e-12 3.6141553202820127552e-12 2.7244535019991325369e-12 2.0502832339533684855e-12 1.5402983229630595147e-12 1.1552237422181272795e-12 8.6492531190653875581e-13 6.4648531037218200389e-13 4.8238742554808173055e-13 3.5933587998535580954e-13 2.6720576421234490668e-13 1.9836512702910411258e-13 1.4699706580189520649e-13 1.08771705637959402e-13 8.0321366065162194295e-14 5.9218692976971838411e-14 4.3604901697217330535e-14 3.2036700594993070644e-14 2.3508159139668829021e-14 1.721015929573797673e-14 1.2574131632844843416e-14 9.1845831057298360406e-15 6.6916248341744432331e-15 4.8547082130284084984e-15 3.542624912209879707e-15
37.088326196326889317 36.128578719663060781 35.181430214293747838 34.246878764278086749 33.324922588033473403 32.415560029585144264 31.518789550520093456 30.634609722566803924 29.763019220719485247 28.904016816846432647 28.057601373721599458 27.223771839431943675 26.402527242120676476 25.593866685025759011 24.797789341791634854 24.014294452021232473 23.243381317055838764 22.485049295958408067 21.739297801695162349 21.006126297496429345 20.285534293395901528 19.577521342933533077 18.88208704002481042 18.19923101598341475 17.528952936701159615 16.871252499974328742 16.226129432980687994 15.59358348989561982 14.973614449653398495 14.366222113842271213 13.771406304733796233 13.189166863442977728 12.619503648211708224 12.062416532816474302 11.517905405089257087 10.985970165553371913 10.46661072616307564 9.9598270091479044197 9.4656189459497195315 8.9839864762544117127 8.514929547105001717 8.0584481120992172976 7.6145421306578224829 7.1832115673664702626 6.7644563913780473285 6.3582765758790111832 5.9646720976068321463 5.5836429364203565839 5.2151890749157461258 4.8593104980834560536 4.5160071930052527733 4.1852791485835982854 3.8671263553048111916 3.5615488050281189913 3.268546490802039628 2.9881194067010081739 2.7202675476853852565 2.4649909094753486016 2.2222894884456252385 1.992163281529112151 1.7746122861379576285 1.5696365000908376608 1.3772359215548606315 1.1974105489906696764 1.0301603811097970187 0.87548541683456293505 0.73338565526536381167 0.60386109565403711663 0.4869117373775351254 0.3825375799198568183 0.29073862285298246455 0.21151486582376125001 0.14486630854011656178 0.090792950762376353757 0.049294792292733487227 0.020371832969864021867 0.004024072660645169712 7.2882908454567035867e-09 5.7903560668823470875e-09 4.5925380524101050133e-09 3.6363685208296716154e-09 2.874420936563830251e-09 2.268297027484920454e-09 1.7869659933721355704e-09 1.4053975668171809087e-09 1.1034391540876654098e-09 8.6489545056859152332e-10 6.7677548795832787601e-10 5.2867789484629072332e-10 4.1229017447486726671e-10 3.209813976306710995e-10 2.494718643264008773e-10 1.9356545404376254246e-10 1.4993344894352138741e-10 1.1594001038377659256e-10 8.9501863776957473068e-11 6.8975452805720731937e-11 5.3066508763248615744e-11 4.075770281728538838e-11 3.1250867302010864921e-11 2.3920897904310762486e-11 1.8279122508808573235e-11 1.394427546021765343e-11 1.061936040824871487e-11 8.0735352951037334354e-12 6.1275914641670219566e-12 4.6427862121188329982e-12 3.5117933053133714509e-12 2.6518035507817984662e-12 1.9990052530386456233e-12 1.5043482855855225495e-12 1.1301585571530185722e-12 8.4761891786170360325e-13 6.3461910460891078786e-13 4.7434376490480612121e-13 3.5394070662717053766e-13 2.6365445810285891461e-13 1.9605609929138338419e-13 1.4554586109100506656e-13 1.0785572464483189967e-13 7.9808743585719170738e-14 5.8933959628119308007e-14 4.3450357384403815167e-14 3.1994096242425859746e-14 2.3506194079813863058e-14 1.7248572447643658776e-14 1.2627559550041605819e-14 9.2259806115293377898e-15 6.7389771423342656723e-15 4.9098262037005286031e-15 3.562030775233662058e-15 2.5993197549002397096e-15
37.087542869279680247 36.12787499928865742 35.180798816084127623 34.246312991022080041 33.324416288594264302 32.415107560368937811 31.518385739417428937 30.634249835174664156 29.762698928675412446 28.903732168126211377 28.057348764769574956 27.223547989008164194 26.402329166761980161 25.593691676028761606 24.797634943634804472 24.014158442150822736 23.243261686966768309 22.484944233506197975 21.73920567457935249 21.006045637859070752 20.285463783481514355 19.577459801759037106 18.882033411009626178 18.199184355491453857 17.528912403447545643 16.871217345250862252 16.226098991655039327 15.593557172140130263 14.97359173336053928 14.366202537684685581 13.771389461828020373 13.189152395577123045 12.619491240598605941 12.06240590933514234 11.517896323978977335 10.985962415526119074 10.466604122901609131 9.9598213921584051178 9.4656141757394944847 8.9839824318068206566 8.5149261236253988017 8.0584452190073729838 7.6145396898038821831 7.1832095114491201215 6.7644546625450923116 6.3582751244920991951 5.9646708811534709938 5.5836419185577863544 5.2151882246325342862 4.8593097889659162547 4.5160066025969998194 4.1852786578276095497 3.8671259480584239121 3.5615484676423321275 3.2685462117573780283 2.9881191762930128242 2.720267357753544335 2.4649907531699639662 2.2222893600277222603 1.9921631761990756804 1.7746121998890742599 1.5696364295843809877 1.3772358640137756236 1.1974105021092724677 1.0301603429772343556 0.87548538587006830003 0.73338563016360325264 0.60386107533906741018 0.48691172096409462977 0.38253756668088778614 0.29073861219243635201 0.21151485725387317305 0.14486630166245312301 0.090792945252061232897 0.049294787885344533429 0.020371829450570935749 0.0040240698552225151116 5.0556972886066055207e-09 4.0166189973439741554e-09 3.1857238785631946716e-09 2.5224540104009422876e-09 1.9939108419738425859e-09 1.5734584933009022407e-09 1.2395717075237703765e-09 9.7488764090656199629e-10 7.6542696473661280649e-10 5.9995541855937752226e-10 4.6946150645482751223e-10 3.6673006833207268796e-10 2.8599494197127344779e-10 2.2265642470448389165e-10 1.7305212633926198797e-10 1.3427130750222912319e-10 1.0400492343755722595e-10 8.0424561619085837239e-11 6.2085108794873854617e-11 4.7846472809682066061e-11 3.6810853214661351292e-11 2.8272555529659260283e-11 2.1677911660211099781e-11 1.6593303046321017019e-11 1.2679750585568889005e-11 9.6727802358584681962e-12 7.3663733743228385405e-12 5.6004008855667403256e-12 4.2505503980549366163e-12 3.2205797167466820864e-12 2.4360394323083606937e-12 1.8394869671475269277e-12 1.3866578122425182439e-12 1.0435271740131404928e-12 7.8396151784333885377e-13 5.8797113838039443597e-13 4.4021872272054073606e-13 3.290398993669302856e-13 2.455194378149667658e-13 1.8289022177663933748e-13 1.3599900315766952574e-13 1.0096136816780651653e-13 7.4816703431117265715e-14 5.5361244103874654729e-14 4.0880950863184070636e-14 3.014037978150841183e-14 2.2193470193618826497e-14 1.6305633818278827741e-14 1.196488488371889816e-14 8.7594087474289740281e-15 6.3998221471048902763e-15 4.6746526987546693169e-15 3.4058183948068979782e-15 2.470887855055930036e-15 1.8030803266624352611e-15
37.08690330136495561 36.127300424504689147 35.180283287899094091 34.245851042190707858 33.324002897540964341 32.414738119761757673 31.518056026755438381 30.63395598523284491 29.762437407670010003 28.903499749479902192 28.057142506370073676 27.22336521186622349 26.402167434985045702 25.593548778035547286 24.797508874543449764 24.014047387279386925 23.243164006390045984 22.484858447616865362 21.739130450604911005 21.005979777288700916 20.285406210359145263 19.577409551800656118 18.881989621504303045 18.19914625594662283 17.528879306940183369 16.87118864044701283 16.226074135460908821 15.593535682948894916 14.97357318485967248 14.366186553189550068 13.771375709108331975 13.189140582143840774 12.619481109419847797 12.062397234950809732 11.517888908984911467 10.985956087399843639 10.466598731142962464 9.959816805719658106 9.4656102807208952754 8.9839791293948056961 8.5149233282521077371 8.0584428567114141373 7.6145376967736115859 7.1832078327310364685 6.7644532509011741084 6.3582739393911618109 5.9646698878828026125 5.5836410874424444728 5.2151875303507573278 4.8593092099501431491 4.5160061205109212068 4.1852782571105953124 3.8671256155295066215 3.5615481921566933821 3.2685459839090209577 2.9881189881579555134 2.7202672026684844298 2.4649906255419158363 2.2222892551706414643 1.992163090193932673 1.7746121294642664967 1.5696363720137378461 1.3772358170297485103 1.1974104638292011327 1.0301603118408497739 0.87548536058662684844 0.73338560966726051848 0.60386105875128337495 0.48691170756202661885 0.38253755587087123757 0.29073860348777963436 0.21151485025630173409 0.14486629604663400772 0.090792940752723150233 0.0492947842865788452 0.020371826576962241001 0.0040240675645105078787 3.2327174745388476367e-09 2.5683093113122238376e-09 2.0370177769182659378e-09 1.6129092967780541215e-09 1.2749478566245216003e-09 1.006101923569384165e-09 7.9260780291222287166e-10 6.2336333304366695312e-10 4.8942984188176014976e-10 3.8362391079792029804e-10 3.0018340280704520454e-10 2.3449479522846484722e-10 1.8287108460736738446e-10 1.4237112586641406544e-10 1.1065311092288791605e-10 8.5855852783265436599e-11 6.6502900444653649327e-11 5.142512909854942863e-11 3.9698503424819591104e-11 3.0594024905018318712e-11 2.353762135203011973e-11 1.8078057110787986309e-11 1.3861305343439302774e-11 1.061010136891851541e-11 8.107694933910463648e-12 6.1849758625659234277e-12 4.7102115838356234985e-12 3.581012227437656006e-12 2.7178898903475197606e-12 2.059305321308383161e-12 1.557654027249901411e-12 1.1762060352758983655e-12 8.8665770225665591077e-13 6.6725287102847197532e-13 5.0128121872006130985e-13 3.759609140386916155e-13 2.8148496170553231597e-13 2.103949211894125377e-13 1.5699020960355907095e-13 1.1694379274684862546e-13 8.6960577140488433899e-14 6.4556788218420390337e-14 4.783934851769501006e-14 3.5399125189963189261e-14 2.6140126019842936755e-14 1.927238259235501301e-14 1.41909641392727371e-14 1.0426159711149647868e-14 7.650595009887171812e-15 5.600947230493949331e-15 4.0921787262182942985e-15 2.9890696782810858262e-15 2.1777507656047910569e-15 1.5799368299485191053e-15 1.1529268759083788065e-15
37.086406686299504543 36.126854273289417563 35.179882983815197406 34.2454923405381777 33.323681899560448016 32.414451248253556059 31.517800003258567898 30.63372780864354894 29.762234334193717444 28.903319273823349533 28.056982344091331072 27.223223282809797752 26.402041847737333313 25.593437815342841901 24.797410979640265083 24.013961151079822542 23.243088155498732306 22.484791833119277982 21.739072037599431297 21.005928635124853088 20.285361503548195117 19.577370531565986056 18.881955617940139547 18.199116670754563074 17.528853606713710178 16.871166350474869233 16.226054834020860795 15.593518996063952642 14.973558781489554548 14.366174140830732853 13.771365029776799105 13.189131408715340399 12.619473242303266503 12.062390499071140582 11.517883151053160518 10.985951173448173179 10.466594544304344439 9.9598132442323237257 9.4656072561388686637 8.9839765649868930097 8.5149211575727221657 8.0584410223276687901 7.6145361491341514437 7.183206529163070897 6.7644521547231732939 6.3582730191296255029 5.9646691165824208269 5.5836404420598615417 5.2151869912229757986 4.8593087603293954047 4.5160057461585880745 4.1852779459434472642 3.8671253573121817659 3.5615479782349526161 3.2685458069788637658 2.9881188420662048166 2.7202670822409134033 2.4649905264354261547 2.2222891737463981165 1.9921630234087082112 1.7746120747775762094 1.5696363273086402224 1.3772357805454327195 1.1974104341037328236 1.0301602876626394512 0.87548534095337859906 0.73338559375131862073 0.6038610458704387618 0.48691169715497306658 0.3825375474766129491 0.29073859672838792134 0.21151484482250593189 0.14486629168580475446 0.090792937258870387573 0.04929478149204391535 0.020371824345530534922 0.0040240657857132013792 1.8171263517570958008e-09 1.4436592637212024406e-09 1.1450176857949432832e-09 9.0662422848558195834e-10 7.1665444497621002909e-10 5.6553482707752407674e-10 4.455287344764657178e-10 3.503955876670718095e-10 2.7511091522030754786e-10 2.1563688228419675766e-10 1.6873456339112356306e-10 1.3181067480886649421e-10 1.0279273380744866704e-10 8.0027508309950963367e-11 6.2198656504390777127e-11 4.8259996050919992144e-11 3.7381606597479135929e-11 2.8906317353585293647e-11 2.2314723532563332871e-11 1.7197051490790859474e-11 1.3230612435544104884e-11 1.0161764591384748666e-11 7.7915077359331338183e-12 5.9639900317252020679e-12 4.5573750980138966502e-12 3.4766052753147932804e-12 2.6476330391723110391e-12 2.0129045411848842775e-12 1.5277392411015093239e-12 1.1575456238846343362e-12 8.7556497043566504116e-13 6.6115118279557873538e-13 4.9839464430595686905e-13 3.7506611229108415021e-13 2.8177263228569013005e-13 2.1132947421351226007e-13 1.5822407791603106203e-13 1.1826401738020394113e-13 8.8244966998812688604e-14 6.5734679619329633428e-14 4.8880967031885667983e-14 3.6287687367700660443e-14 2.6890732497581696578e-14 1.9898021934384132633e-14 1.4693493076994453258e-14 1.0833100803837087197e-14 7.9768105623517310681e-15 5.8605955234924006593e-15 4.3004369882279469122e-15 3.1483199160327308091e-15 2.3002337378890835777e-15 1.6801707302840965324e-15 1.2241243892069846165e-15 8.8809024315016531001e-16 6.4806585310958009109e-16
37.086052402171837628 36.126535988710102743 35.179597405586250147 34.245236440784488252 33.323452897138885476 32.414246591370748263 31.517617353199803176 30.633565024527054987 29.762089458674896747 28.903190519682688375 28.056868081647373003 27.223122028105429138 26.401952251453369769 25.593358652397650843 24.797341139438408675 24.013899628375991568 23.243034041846030391 22.484744308873246155 21.739030364451004118 21.005892149136951019 20.285329608671805346 19.577342693612539648 18.881931358987824154 18.199095563966725564 17.528835271548150132 16.871150448263254162 16.226041063897916672 15.593507091226584294 14.973548505766407501 14.366165285543262442 13.771357410873326543 13.189124864160151063 12.619467629703354561 12.06238569352381873 11.517879043198357536 10.985947667709968556 10.466591557306928806 9.9598107033763305651 9.4656050983247386199 8.9839747354726711137 8.514919608954459207 8.0584397136312926335 7.6145350450084716698 7.18320559916423651 6.7644513726816484223 6.3582723625914132626 5.9646685663169147773 5.5836399816273436514 5.2151866065953589313 4.8593084395583945323 4.5160054790860089113 4.1852777239488023753 3.8671251730933016155 3.5615478256176804628 3.2685456807523385336 2.9881187378405917876 2.7202669963247858576 2.4649904557303070618 2.222289115656248093 1.9921629757624106372 1.7746120357626844477 1.5696362954148730395 1.3772357545165829773 1.197410412896818821 1.0301602704132819532 0.87548532694651415298 0.73338558239647622106 0.60386103668091273278 0.4869116897303132907 0.38253754148793306378 0.29073859190606388125 0.21151484094589620422 0.14486628857467698239 0.090792934766265931401 0.049294779498350781155 0.020371822753569735626 0.0040240645166734305416 8.0720721811196383979e-10 6.4130497973035804571e-10 5.0864186739779129808e-10 4.0274228627973597648e-10 3.1835355881209225988e-10 2.5122292353742694724e-10 1.9791359583254984744e-10 1.5565337396410924984e-10 1.2221027797064013153e-10 9.5790613409906972411e-11 7.4955578839272389271e-11 5.8553180978106921959e-11 4.5662777727177385479e-11 3.5549967285280417821e-11 2.7630001865814784e-11 2.1438144420973035877e-11 1.6605726201870994894e-11 1.2840817588360637834e-11 9.9126876285022916846e-12 7.639305918835841755e-12 5.8773270489305070382e-12 4.5140778016722167236e-12 3.4611579313846260514e-12 2.6493346474913476403e-12 2.0244855683118116289e-12 1.5443840050952298329e-12 1.176136430009084521e-12 8.9417616640644903628e-13 6.7865514232121591789e-13 5.1420705116821136713e-13 3.8894508541528823158e-13 2.9369779736264906394e-13 2.2139778776626535057e-13 1.6661255989816000337e-13 1.2516955820825587322e-13 9.3877168655853319506e-14 7.0286591604028407564e-14 5.2535459839845471176e-14 3.9200341934356556469e-14 2.9200780573218736556e-14 2.1713993295025727362e-14 1.6119783384813957005e-14 1.1945450767573508758e-14 8.8391359889756241061e-15 6.5271705845392963676e-15 4.8123000116879837776e-15 3.5434734945728126229e-15 2.6034045484198449778e-15 1.9103480474750478629e-15 1.398552477546848836e-15 1.0218140719051164303e-15 7.4636853947851975532e-16 5.4378279304863582173e-16 3.9450908515293187067e-16 2.8788500808457190562e-16
37.085840007515720629 36.126345175418137501 35.17942619951698191 34.245083026828844197 33.323315608080136485 32.414123897468208213 31.517507852437972815 30.633467433478809738 29.762002603933758849 28.903113329824325461 28.056799579685421264 27.223061324410583239 26.401898537108209553 25.59331119296255963 24.797299269106385822 24.013862744496165647 23.243001599797366907 22.484715817271343496 21.739005380671866163 21.005870275142640935 20.285310487123481948 19.5773260042570314 18.881916815304251145 18.199082910060202067 17.528824279277785081 16.871140914592000826 16.226032808452128364 15.593499954053338996 14.973542345276948495 14.366159976631173834 13.771352843196380533 13.189120940575037366 12.619464264842898515 12.062382812506577068 11.517876580460956859 10.985945565952873082 10.466589766544787565 9.959809180084464586 9.4656038046737727143 8.9839736386437731852 8.5149186805280603352 8.058438929042660348 7.6145343830638942961 7.1832050416120445391 6.7644509038327047534 6.3582719689841171729 5.9646682364221490502 5.5836397055891815455 5.2151863760036949458 4.8593082472500004343 4.5160053189708513344 4.1852775908587354081 3.8671250626505329073 3.561547734120684261 3.2685456050771035663 2.9881186753553277136 2.720266944816411403 2.4649904133412250395 2.2222890808300839183 1.9921629471975368375 1.7746120123725046547 1.5696362762939448654 1.3772357389117857451 1.1974104001828651533 1.0301602600719597103 0.87548531854912892136 0.73338557558902928157 0.60386103117161471499 0.48691168527908662567 0.3825375378976040297 0.29073858901498766949 0.21151483862179393247 0.14486628670949586173 0.09079293327190150753 0.049294778303093318705 0.020371821799158543187 0.0040240637558596218867 2.0174122762696496724e-10 1.6027811817325677966e-10 1.2712229579955630491e-10 1.0065534775885601127e-10 7.9564498847625072612e-11 6.2786877850259556504e-11 4.946354652472551257e-11 3.8901662477647598623e-11 3.0543398217725914123e-11 2.3940464742293835437e-11 1.8733269665594786011e-11 1.4633901118877685219e-11 1.1412267666942174019e-11 8.8848239727041113114e-12 6.9054269719407810126e-12 5.3579272789011198952e-12 4.150185373132617417e-12 3.2092407574612278862e-12 2.4774280091164035076e-12 1.90925318771426683e-12 1.4688906980082005965e-12 1.1281806912831328854e-12 8.6502974012177808312e-13 6.6213484245675773529e-13 5.05969464483855078e-13 3.859801029193187903e-13 2.9394584430064172248e-13 2.2347693811826663922e-13 1.6961285588012491093e-13 1.2851317410493720209e-13 9.7207082955544808353e-14 7.3402408778659460403e-14 5.5332832136442137004e-14 4.1640636528838320628e-14 3.1282996197961031613e-14 2.3462247148379612943e-14 1.7566373241157931964e-14 1.3129922434445765782e-14 9.7971436924857715199e-15 7.2980037696517297176e-15 5.4268687963288393368e-15 4.02873613646547003e-15 2.9854662451004139671e-15 2.2091206639585629613e-15 1.6313028143778242088e-15 1.2027138636904840614e-15 8.8560245354461787977e-16 6.5065576451461642844e-16 4.7744364972915531423e-16 3.4953316496450722893e-16 2.5537683590164124096e-16 1.8653612361511186296e-16 1.3590489006243864301e-16 9.8597665339416270422e-17 7.1949647680114575714e-17
37.085769238545935877 36.126281597181446159 35.179369154261848962 34.245031909787712721 33.323269863758469 32.414083016174572549 31.517471367035682306 30.633434916342139331 29.761973664093602565 28.903087610290185694 28.056776754932002405 27.223041098018711637 26.401880639550881824 25.593295379527944533 24.797285317950354511 24.01385045481765701 23.242990790130420464 22.48470632388807644 21.738997056091079685 21.005862986738975451 20.285304115832332172 19.577320443370581415 18.881911969354177927 18.19907869378266696 17.528820616656503262 16.871137737975232085 16.22603005773953555 15.593497575948731537 14.973540292603047419 14.366158207702596883 13.771351321247152555 13.189119633237055496 12.619463143671850958 12.062381852551993688 11.517875759877142627 10.985944865647638835 10.466589169863027564 9.9598086725237635619 9.4656033736293920811 8.9839732731804815558 8.5149183711764635518 8.0584386676177928166 7.6145341625040146027 7.1832048558356973444 6.7644507476122726075 6.3582718378341951393 5.9646681265012375661 5.5836396136132862011 5.215186299170568418 4.8593081831728568432 4.516005265620492537 4.185277546513134439 3.8671250258510099229 3.561547703633891615 3.2685455798621205759 2.988118654535242058 2.7202669276538244958 2.4649903992171857681 2.2222890692260079959 1.9921629376797227451 1.7746120045788984498 1.5696362699228529891 1.3772357337122684839 1.1974103959465765001 1.030160256626231785 0.87548531575112065184 0.73338557332078835316 0.60386102933591701003 0.48691168379593818827 0.38253753670130663522 0.29073858805168129038 0.21151483784740321425 0.14486628608801765949 0.090792932773979373451 0.049294777904833608773 0.020371821481148799649 0.00402406350235651189 0 0 0 0 0 0 0 0 0 0 0 0 0 0 0 0 0 0 0 0 0 0 0 0 0 0 0 0 0 0 0 0 0 0 0 0 0 0 0 0 0 0 0 0 0 0 0 0 0 0 0 0 0 0 0
37.085840007515720629 36.126345175418137501 35.17942619951698191 34.245083026828844197 33.323315608080136485 32.414123897468208213 31.517507852437972815 30.633467433478809738 29.762002603933758849 28.903113329824325461 28.056799579685421264 27.223061324410583239 26.401898537108209553 25.59331119296255963 24.797299269106385822 24.013862744496165647 23.243001599797366907 22.484715817271343496 21.739005380671866163 21.005870275142640935 20.285310487123481948 19.5773260042570314 18.881916815304251145 18.199082910060202067 17.528824279277785081 16.871140914592000826 16.226032808452128364 15.593499954053338996 14.973542345276948495 14.366159976631173834 13.771352843196380533 13.189120940575037366 12.619464264842898515 12.062382812506577068 11.517876580460956859 10.985945565952873082 10.466589766544787565 9.959809180084464586 9.4656038046737727143 8.9839736386437731852 8.5149186805280603352 8.058438929042660348 7.6145343830638942961 7.1832050416120445391 6.7644509038327047534 6.3582719689841171729 5.9646682364221490502 5.5836397055891815455 5.2151863760036949458 4.8593082472500004343 4.5160053189708513344 4.1852775908587354081 3.8671250626505329073 3.561547734120684261 3.2685456050771035663 2.9881186753553277136 2.720266944816411403 2.4649904133412250395 2.2222890808300839183 1.9921629471975368375 1.7746120123725046547 1.5696362762939448654 1.3772357389117857451 1.1974104001828651533 1.0301602600719597103 0.87548531854912892136 0.73338557558902928157 0.60386103117161471499 0.48691168527908662567 0.3825375378976040297 0.29073858901498766949 0.21151483862179393247 0.14486628670949586173 0.09079293327190150753 0.049294778303093318705 0.020371821799158543187 0.0040240637558596218867 2.0174122762696496724e-10 1.6027811817325677966e-10 1.2712229579955630491e-10 1.0065534775885601127e-10 7.9564498847625072612e-11 6.2786877850259556504e-11 4.946354652472551257e-11 3.8901662477647598623e-11 3.0543398217725914123e-11 2.3940464742293835437e-11 1.8733269665594786011e-11 1.4633901118877685219e-11 1.1412267666942174019e-11 8.8848239727041113114e-12 6.9054269719407810126e-12 5.3579272789011198952e-12 4.150185373132617417e-12 3.2092407574612278862e-12 2.4774280091164035076e-12 1.90925318771426683e-12 1.4688906980082005965e-12 1.1281806912831328854e-12 8.6502974012177808312e-13 6.6213484245675773529e-13 5.05969464483855078e-13 3.859801029193187903e-13 2.9394584430064172248e-13 2.2347693811826663922e-13 1.6961285588012491093e-13 1.2851317410493720209e-13 9.7207082955544808353e-14 7.3402408778659460403e-14 5.5332832136442137004e-14 4.1640636528838320628e-14 3.1282996197961031613e-14 2.3462247148379612943e-14 1.7566373241157931964e-14 1.3129922434445765782e-14 9.7971436924857715199e-15 7.2980037696517297176e-15 5.4268687963288393368e-15 4.02873613646547003e-15 2.9854662451004139671e-15 2.2091206639585629613e-15 1.6313028143778242088e-15 1.2027138636904840614e-15 8.8560245354461787977e-16 6.5065576451461642844e-16 4.7744364972915531423e-16 3.4953316496450722893e-16 2.5537683590164124096e-16 1.8653612361511186296e-16 1.3590489006243864301e-16 9.8597665339416270422e-17 7.1949647680114575714e-17
37.086052402171837628 36.126535988710102743 35.179597405586250147 34.245236440784488252 33.323452897138885476 32.414246591370748263 31.517617353199803176 30.633565024527054987 29.762089458674896747 28.903190519682688375 28.056868081647373003 27.223122028105429138 26.401952251453369769 25.593358652397650843 24.797341139438408675 24.013899628375991568 23.243034041846030391 22.484744308873246155 21.739030364451004118 21.005892149136951019 20.285329608671805346 19.577342693612539648 18.881931358987824154 18.199095563966725564 17.528835271548150132 16.871150448263254162 16.226041063897916672 15.593507091226584294 14.973548505766407501 14.366165285543262442 13.771357410873326543 13.189124864160151063 12.619467629703354561 12.06238569352381873 11.517879043198357536 10.985947667709968556 10.466591557306928806 9.9598107033763305651 9.4656050983247386199 8.9839747354726711137 8.514919608954459207 8.0584397136312926335 7.6145350450084716698 7.18320559916423651 6.7644513726816484223 6.3582723625914132626 5.9646685663169147773 5.5836399816273436514 5.2151866065953589313 4.8593084395583945323 4.5160054790860089113 4.1852777239488023753 3.8671251730933016155 3.5615478256176804628 3.2685456807523385336 2.9881187378405917876 2.7202669963247858576 2.4649904557303070618 2.222289115656248093 1.9921629757624106372 1.7746120357626844477 1.5696362954148730395 1.3772357545165829773 1.197410412896818821 1.0301602704132819532 0.87548532694651415298 0.73338558239647622106 0.60386103668091273278 0.4869116897303132907 0.38253754148793306378 0.29073859190606388125 0.21151484094589620422 0.14486628857467698239 0.090792934766265931401 0.049294779498350781155 0.020371822753569735626 0.0040240645166734305416 8.0720721811196383979e-10 6.4130497973035804571e-10 5.0864186739779129808e-10 4.0274228627973597648e-10 3.1835355881209225988e-10 2.5122292353742694724e-10 1.9791359583254984744e-10 1.5565337396410924984e-10 1.2221027797064013153e-10 9.5790613409906972411e-11 7.4955578839272389271e-11 5.8553180978106921959e-11 4.5662777727177385479e-11 3.5549967285280417821e-11 2.7630001865814784e-11 2.1438144420973035877e-11 1.6605726201870994894e-11 1.2840817588360637834e-11 9.9126876285022916846e-12 7.639305918835841755e-12 5.8773270489305070382e-12 4.5140778016722167236e-12 3.4611579313846260514e-12 2.6493346474913476403e-12 2.0244855683118116289e-12 1.5443840050952298329e-12 1.176136430009084521e-12 8.9417616640644903628e-13 6.7865514232121591789e-13 5.1420705116821136713e-13 3.8894508541528823158e-13 2.9369779736264906394e-13 2.2139778776626535057e-13 1.6661255989816000337e-13 1.2516955820825587322e-13 9.3877168655853319506e-14 7.0286591604028407564e-14 5.2535459839845471176e-14 3.9200341934356556469e-14 2.9200780573218736556e-14 2.1713993295025727362e-14 1.6119783384813957005e-14 1.1945450767573508758e-14 8.8391359889756241061e-15 6.5271705845392963676e-15 4.8123000116879837776e-15 3.5434734945728126229e-15 2.6034045484198449778e-15 1.9103480474750478629e-15 1.398552477546848836e-15 1.0218140719051164303e-15 7.4636853947851975532e-16 5.4378279304863582173e-16 3.9450908515293187067e-16 2.8788500808457190562e-16
37.086406686299504543 36.126854273289417563 35.179882983815197406 34.2454923405381777 33.323681899560448016 32.414451248253556059 31.517800003258567898 30.63372780864354894 29.762234334193717444 28.903319273823349533 28.056982344091331072 27.223223282809797752 26.402041847737333313 25.593437815342841901 24.797410979640265083 24.013961151079822542 23.243088155498732306 22.484791833119277982 21.739072037599431297 21.005928635124853088 20.285361503548195117 19.577370531565986056 18.881955617940139547 18.199116670754563074 17.528853606713710178 16.871166350474869233 16.226054834020860795 15.593518996063952642 14.973558781489554548 14.366174140830732853 13.771365029776799105 13.189131408715340399 12.619473242303266503 12.062390499071140582 11.517883151053160518 10.985951173448173179 10.466594544304344439 9.9598132442323237257 9.4656072561388686637 8.9839765649868930097 8.5149211575727221657 8.0584410223276687901 7.6145361491341514437 7.183206529163070897 6.7644521547231732939 6.3582730191296255029 5.9646691165824208269 5.5836404420598615417 5.2151869912229757986 4.8593087603293954047 4.5160057461585880745 4.1852779459434472642 3.8671253573121817659 3.5615479782349526161 3.2685458069788637658 2.9881188420662048166 2.7202670822409134033 2.4649905264354261547 2.2222891737463981165 1.9921630234087082112 1.7746120747775762094 1.5696363273086402224 1.3772357805454327195 1.1974104341037328236 1.0301602876626394512 0.87548534095337859906 0.73338559375131862073 0.6038610458704387618 0.48691169715497306658 0.3825375474766129491 0.29073859672838792134 0.21151484482250593189 0.14486629168580475446 0.090792937258870387573 0.04929478149204391535 0.020371824345530534922 0.0040240657857132013792 1.8171263517570958008e-09 1.4436592637212024406e-09 1.1450176857949432832e-09 9.0662422848558195834e-10 7.1665444497621002909e-10 5.6553482707752407674e-10 4.455287344764657178e-10 3.503955876670718095e-10 2.7511091522030754786e-10 2.1563688228419675766e-10 1.6873456339112356306e-10 1.3181067480886649421e-10 1.0279273380744866704e-10 8.0027508309950963367e-11 6.2198656504390777127e-11 4.8259996050919992144e-11 3.7381606597479135929e-11 2.8906317353585293647e-11 2.2314723532563332871e-11 1.7197051490790859474e-11 1.3230612435544104884e-11 1.0161764591384748666e-11 7.7915077359331338183e-12 5.9639900317252020679e-12 4.5573750980138966502e-12 3.4766052753147932804e-12 2.6476330391723110391e-12 2.0129045411848842775e-12 1.5277392411015093239e-12 1.1575456238846343362e-12 8.7556497043566504116e-13 6.6115118279557873538e-13 4.9839464430595686905e-13 3.7506611229108415021e-13 2.8177263228569013005e-13 2.1132947421351226007e-13 1.5822407791603106203e-13 1.1826401738020394113e-13 8.8244966998812688604e-14 6.5734679619329633428e-14 4.8880967031885667983e-14 3.6287687367700660443e-14 2.6890732497581696578e-14 1.9898021934384132633e-14 1.4693493076994453258e-14 1.0833100803837087197e-14 7.9768105623517310681e-15 5.8605955234924006593e-15 4.3004369882279469122e-15 3.1483199160327308091e-15 2.3002337378890835777e-15 1.6801707302840965324e-15 1.2241243892069846165e-15 8.8809024315016531001e-16 6.4806585310958009109e-16
37.08690330136495561 36.127300424504689147 35.180283287899094091 34.245851042190707858 33.324002897540964341 32.414738119761757673 31.518056026755438381 30.63395598523284491 29.762437407670010003 28.903499749479902192 28.057142506370073676 27.22336521186622349 26.402167434985045702 25.593548778035547286 24.797508874543449764 24.014047387279386925 23.243164006390045984 22.484858447616865362 21.739130450604911005 21.005979777288700916 20.285406210359145263 19.577409551800656118 18.881989621504303045 18.19914625594662283 17.528879306940183369 16.87118864044701283 16.226074135460908821 15.593535682948894916 14.97357318485967248 14.366186553189550068 13.771375709108331975 13.189140582143840774 12.619481109419847797 12.062397234950809732 11.517888908984911467 10.985956087399843639 10.466598731142962464 9.959816805719658106 9.4656102807208952754 8.9839791293948056961 8.5149233282521077371 8.0584428567114141373 7.6145376967736115859 7.1832078327310364685 6.7644532509011741084 6.3582739393911618109 5.9646698878828026125 5.5836410874424444728 5.2151875303507573278 4.8593092099501431491 4.5160061205109212068 4.1852782571105953124 3.8671256155295066215 3.5615481921566933821 3.2685459839090209577 2.9881189881579555134 2.7202672026684844298 2.4649906255419158363 2.2222892551706414643 1.992163090193932673 1.7746121294642664967 1.5696363720137378461 1.3772358170297485103 1.1974104638292011327 1.0301603118408497739 0.87548536058662684844 0.73338560966726051848 0.60386105875128337495 0.48691170756202661885 0.38253755587087123757 0.29073860348777963436 0.21151485025630173409 0.14486629604663400772 0.090792940752723150233 0.0492947842865788452 0.020371826576962241001 0.0040240675645105078787 3.2327174745388476367e-09 2.5683093113122238376e-09 2.0370177769182659378e-09 1.6129092967780541215e-09 1.2749478566245216003e-09 1.006101923569384165e-09 7.9260780291222287166e-10 6.2336333304366695312e-10 4.8942984188176014976e-10 3.8362391079792029804e-10 3.0018340280704520454e-10 2.3449479522846484722e-10 1.8287108460736738446e-10 1.4237112586641406544e-10 1.1065311092288791605e-10 8.5855852783265436599e-11 6.6502900444653649327e-11 5.142512909854942863e-11 3.9698503424819591104e-11 3.0594024905018318712e-11 2.353762135203011973e-11 1.8078057110787986309e-11 1.3861305343439302774e-11 1.061010136891851541e-11 8.107694933910463648e-12 6.1849758625659234277e-12 4.7102115838356234985e-12 3.581012227437656006e-12 2.7178898903475197606e-12 2.059305321308383161e-12 1.557654027249901411e-12 1.1762060352758983655e-12 8.8665770225665591077e-13 6.6725287102847197532e-13 5.0128121872006130985e-13 3.759609140386916155e-13 2.8148496170553231597e-13 2.103949211894125377e-13 1.5699020960355907095e-13 1.1694379274684862546e-13 8.6960577140488433899e-14 6.4556788218420390337e-14 4.783934851769501006e-14 3.5399125189963189261e-14 2.6140126019842936755e-14 1.927238259235501301e-14 1.41909641392727371e-14 1.0426159711149647868e-14 7.650595009887171812e-15 5.600947230493949331e-15 4.0921787262182942985e-15 2.9890696782810858262e-15 2.1777507656047910569e-15 1.5799368299485191053e-15 1.1529268759083788065e-15
37.087542869279680247 36.12787499928865742 35.180798816084127623 34.246312991022080041 33.324416288594264302 32.415107560368937811 31.518385739417428937 30.634249835174664156 29.762698928675412446 28.903732168126211377 28.057348764769574956 27.223547989008164194 26.402329166761980161 25.593691676028761606 24.797634943634804472 24.014158442150822736 23.243261686966768309 22.484944233506197975 21.73920567457935249 21.006045637859070752 20.285463783481514355 19.577459801759037106 18.882033411009626178 18.199184355491453857 17.528912403447545643 16.871217345250862252 16.226098991655039327 15.593557172140130263 14.97359173336053928 14.366202537684685581 13.771389461828020373 13.189152395577123045 12.619491240598605941 12.06240590933514234 11.517896323978977335 10.985962415526119074 10.466604122901609131 9.9598213921584051178 9.4656141757394944847 8.9839824318068206566 8.5149261236253988017 8.0584452190073729838 7.6145396898038821831 7.1832095114491201215 6.7644546625450923116 6.3582751244920991951 5.9646708811534709938 5.5836419185577863544 5.2151882246325342862 4.8593097889659162547 4.5160066025969998194 4.1852786578276095497 3.8671259480584239121 3.5615484676423321275 3.2685462117573780283 2.9881191762930128242 2.720267357753544335 2.4649907531699639662 2.2222893600277222603 1.9921631761990756804 1.7746121998890742599 1.5696364295843809877 1.3772358640137756236 1.1974105021092724677 1.0301603429772343556 0.87548538587006830003 0.73338563016360325264 0.60386107533906741018 0.48691172096409462977 0.38253756668088778614 0.29073861219243635201 0.21151485725387317305 0.14486630166245312301 0.090792945252061232897 0.049294787885344533429 0.020371829450570935749 0.0040240698552225151116 5.0556972886066055207e-09 4.0166189973439741554e-09 3.1857238785631946716e-09 2.5224540104009422876e-09 1.9939108419738425859e-09 1.5734584933009022407e-09 1.2395717075237703765e-09 9.7488764090656199629e-10 7.6542696473661280649e-10 5.9995541855937752226e-10 4.6946150645482751223e-10 3.6673006833207268796e-10 2.8599494197127344779e-10 2.2265642470448389165e-10 1.7305212633926198797e-10 1.3427130750222912319e-10 1.0400492343755722595e-10 8.0424561619085837239e-11 6.2085108794873854617e-11 4.7846472809682066061e-11 3.6810853214661351292e-11 2.8272555529659260283e-11 2.1677911660211099781e-11 1.6593303046321017019e-11 1.2679750585568889005e-11 9.6727802358584681962e-12 7.3663733743228385405e-12 5.6004008855667403256e-12 4.2505503980549366163e-12 3.2205797167466820864e-12 2.4360394323083606937e-12 1.8394869671475269277e-12 1.3866578122425182439e-12 1.0435271740131404928e-12 7.8396151784333885377e-13 5.8797113838039443597e-13 4.4021872272054073606e-13 3.290398993669302856e-13 2.455194378149667658e-13 1.8289022177663933748e-13 1.3599900315766952574e-13 1.0096136816780651653e-13 7.4816703431117265715e-14 5.5361244103874654729e-14 4.0880950863184070636e-14 3.014037978150841183e-14 2.2193470193618826497e-14 1.6305633818278827741e-14 1.196488488371889816e-14 8.7594087474289740281e-15 6.3998221471048902763e-15 4.6746526987546693169e-15 3.4058183948068979782e-15 2.470887855055930036e-15 1.8030803266624352611e-15
37.088326196326889317 36.128578719663060781 35.181430214293747838 34.246878764278086749 33.324922588033473403 32.415560029585144264 31.518789550520093456 30.634609722566803924 29.763019220719485247 28.904016816846432647 28.057601373721599458 27.223771839431943675 26.402527242120676476 25.593866685025759011 24.797789341791634854 24.014294452021232473 23.243381317055838764 22.485049295958408067 21.739297801695162349 21.006126297496429345 20.285534293395901528 19.577521342933533077 18.88208704002481042 18.19923101598341475 17.528952936701159615 16.871252499974328742 16.226129432980687994 15.59358348989561982 14.973614449653398495 14.366222113842271213 13.771406304733796233 13.189166863442977728 12.619503648211708224 12.062416532816474302 11.517905405089257087 10.985970165553371913 10.46661072616307564 9.9598270091479044197 9.4656189459497195315 8.9839864762544117127 8.514929547105001717 8.0584481120992172976 7.6145421306578224829 7.1832115673664702626 6.7644563913780473285 6.3582765758790111832 5.9646720976068321463 5.5836429364203565839 5.2151890749157461258 4.8593104980834560536 4.5160071930052527733 4.1852791485835982854 3.8671263553048111916 3.5615488050281189913 3.268546490802039628 2.9881194067010081739 2.7202675476853852565 2.4649909094753486016 2.2222894884456252385 1.992163281529112151 1.7746122861379576285 1.5696365000908376608 1.3772359215548606315 1.1974105489906696764 1.0301603811097970187 0.87548541683456293505 0.73338565526536381167 0.60386109565403711663 0.4869117373775351254 0.3825375799198568183 0.29073862285298246455 0.21151486582376125001 0.14486630854011656178 0.090792950762376353757 0.049294792292733487227 0.020371832969864021867 0.004024072660645169712 7.2882908454567035867e-09 5.7903560668823470875e-09 4.5925380524101050133e-09 3.6363685208296716154e-09 2.874420936563830251e-09 2.268297027484920454e-09 1.7869659933721355704e-09 1.4053975668171809087e-09 1.1034391540876654098e-09 8.6489545056859152332e-10 6.7677548795832787601e-10 5.2867789484629072332e-10 4.1229017447486726671e-10 3.209813976306710995e-10 2.494718643264008773e-10 1.9356545404376254246e-10 1.4993344894352138741e-10 1.1594001038377659256e-10 8.9501863776957473068e-11 6.8975452805720731937e-11 5.3066508763248615744e-11 4.075770281728538838e-11 3.1250867302010864921e-11 2.3920897904310762486e-11 1.8279122508808573235e-11 1.394427546021765343e-11 1.061936040824871487e-11 8.0735352951037334354e-12 6.1275914641670219566e-12 4.6427862121188329982e-12 3.5117933053133714509e-12 2.6518035507817984662e-12 1.9990052530386456233e-12 1.5043482855855225495e-12 1.1301585571530185722e-12 8.4761891786170360325e-13 6.3461910460891078786e-13 4.7434376490480612121e-13 3.5394070662717053766e-13 2.6365445810285891461e-13 1.9605609929138338419e-13 1.4554586109100506656e-13 1.0785572464483189967e-13 7.9808743585719170738e-14 5.8933959628119308007e-14 4.3450357384403815167e-14 3.1994096242425859746e-14 2.3506194079813863058e-14 1.7248572447643658776e-14 1.2627559550041605819e-14 9.2259806115293377898e-15 6.7389771423342656723e-15 4.9098262037005286031e-15 3.562030775233662058e-15 2.5993197549002397096e-15
37.089254278308686708 36.129412477332941478 35.182178280226537481 34.247549074822536852 33.325522432223344538 32.416096094850566089 31.519267965459643932 30.635036097009159306 29.76339868327575644 28.904354050130198317 28.057900647392578719 27.224037041201363252 26.402761906840890305 25.594074021973732158 24.797972260244900866 24.014455585215852551 23.243523044608458861 22.485173764828243037 21.739406945756950762 21.006221855791196162 20.285617827123395784 19.577594251247397494 18.882150574689660516 18.199286294951118492 17.529000956662244448 16.871294147939138952 16.226165496943675493 15.593614668634973697 14.973641361717099585 14.366245305770345198 13.771426258565282907 13.189184003554704105 12.619518347534468106 12.062429118472637768 11.517916163494140491 10.985979347020952801 10.466618549054786058 9.9598336636013673484 9.4656245972223782559 8.9839912677150213227 8.5149336029040316731 8.0584515395472582355 7.6145450223391506483 7.1832140030130622321 6.764458439527478717 6.3582782953379020086 5.9646735387397784578 5.5836441422826608161 5.2151900822466839003 4.8593113381753401114 4.5160078924621789298 4.1852797299824358035 3.8671268377697836094 3.5615492047292045541 3.2685468213863675402 2.9881196796654552195 2.720267772697714026 2.4649910946504012266 2.2222896405823671095 1.9921634063136481885 1.7746123883170437097 1.5696365836198649113 1.377235989723806675 1.1974106045310790591 1.0301604262854586747 0.87548545351821183136 0.73338568500342926626 0.60386111972118960978 0.48691175682254450585 0.38253759560406858098 0.29073863548253564559 0.21151487597651094652 0.14486631668808705453 0.09079295729044879748 0.04929479751416888933 0.020371837139171899977 0.0040240759842304699156 9.9332452927604796598e-09 7.8917030567129620244e-09 6.2591913462502974209e-09 4.9560234705165068399e-09 3.9175615848527107652e-09 3.0914725066126905216e-09 2.4354642146853372314e-09 1.9154228418795105074e-09 1.5038823250131723324e-09 1.1787700085416879185e-09 9.2238044169898893139e-10 7.2053754729604803151e-10 5.6191218506717770533e-10 4.374670309279475421e-10 3.4000635735399642266e-10 2.6381125228944162804e-10 2.0434499080033786544e-10 1.5801517621444680131e-10 1.2198250396405029072e-10 9.4006963545033226687e-11 7.2324590152655770576e-11 5.5548861617683144184e-11 4.2591951537943347159e-11 3.2601902354844464437e-11 2.4912700582906528528e-11 1.9004717497710233198e-11 1.4473175400249361533e-11 1.1003458582625278481e-11 8.3513227381440251011e-12 6.3276747949578916783e-12 4.7862393329955472128e-12 3.6141553202820127552e-12 2.7244535019991325369e-12 2.0502832339533684855e-12 1.5402983229630595147e-12 1.1552237422181272795e-12 8.6492531190653875581e-13 6.4648531037218200389e-13 4.8238742554808173055e-13 3.5933587998535580954e-13 2.6720576421234490668e-13 1.9836512702910411258e-13 1.4699706580189520649e-13 1.08771705637959402e-13 8.0321366065162194295e-14 5.9218692976971838411e-14 4.3604901697217330535e-14 3.2036700594993070644e-14 2.3508159139668829021e-14 1.721015929573797673e-14 1.2574131632844843416e-14 9.1845831057298360406e-15 6.6916248341744432331e-15 4.8547082130284084984e-15 3.542624912209879707e-15
37.090328306991516172 36.13037733943924934 35.183043968486899189 34.248324775709754419 33.326216582651944975 32.416716435157972853 31.519821588972671833 30.635529496462620358 29.76383779431763088 28.904744292119584514 28.058246961672249853 27.224343927005659083 26.403033454981763128 25.594313946432500018 24.798183927784581471 24.014642043118215042 23.243687046631258397 22.485317795470869839 21.73953324291695921 21.006332431889504164 20.285714488772121911 19.577678617531390159 18.882224094130197756 18.1993502612183633 17.529056523101221643 16.871342340972539375 16.226207228413361605 15.593650747142680402 14.973672503023458091 14.366272142309918891 13.771449348133748103 13.189203837222722271 12.619535356841035778 12.062443681948877838 11.517928612566530333 10.985989971340950788 10.466627601299707706 9.9598413637891756167 9.4656311365808107894 8.983996812143235644 8.5149382960626986971 8.0584555056107447513 7.6145483684412553771 7.1832168214155354136 6.7644608095384697322 6.3582802850053887767 5.9646752063430588109 5.5836455376430906838 5.215191247877034364 4.8593123102854418605 4.5160087018369008405 4.1852804027465460024 3.8671273960528300684 3.5615496672422382041 3.2685472039211278528 2.9881199955255253187 2.72026803307011944 2.4649913089252093457 2.2222898166269828835 1.9921635507077333216 1.7746125065532942777 1.5696366802752501624 1.3772360686053159995 1.197410668799512079 1.0301604785603519776 0.87548549596659552829 0.73338571941475017013 0.60386114757042919088 0.48691177932328377764 0.38253761375301120751 0.29073865009678839799 0.2115148877247374215 0.14486632611648878055 0.090792964844389908996 0.049294803556138536149 0.02037184196367507194 0.004024079830108082817 1.299384707559745359e-08 1.0323270961269044159e-08 8.1877546329214374462e-09 6.483058575151559451e-09 5.1246289241915963693e-09 4.0440077539040233301e-09 3.1858721523100409756e-09 2.5055971896449693306e-09 1.9672540416140030937e-09 1.5419690921666673491e-09 1.2065815400861546028e-09 9.4254741774711601102e-10 7.3504688412424490145e-10 5.7225806190988805798e-10 4.4476809757170126561e-10 3.4509598500386611773e-10 2.6730715717696946225e-10 2.0670233891832605448e-10 1.595673876428877401e-10 1.2297210752073045935e-10 9.4609026196041485412e-11 7.2664410442613382967e-11 5.5715256046204813732e-11 4.2647102837612300598e-11 3.258872725149008292e-11 2.4860394117585291134e-11 1.8932606844930391216e-11 1.4393811276253713756e-11 1.0924507280805078726e-11 8.2773389959354539642e-12 6.260961057362194432e-12 4.727738030054060495e-12 3.5639039529462905676e-12 2.682010361631875973e-12 2.0148904277120218549e-12 1.5111678207785468209e-12 1.1314235078136143461e-12 8.4567842742276696643e-13 6.3101919394141457199e-13 4.7005337480544274865e-13 3.4953640376964187116e-13 2.5948479569460444414e-13 1.9228936133373270691e-13 1.4228611771401969321e-13 1.0506974474536684717e-13 7.7464979245956176055e-14 5.704031337386040871e-14 4.1907752804762355383e-14 3.0751422706563847483e-14 2.251290201866464927e-14 1.6448435401183612766e-14 1.2014509336516415268e-14 8.7534282308903055099e-15 6.3505263635869743357e-15 4.6341678869417666325e-15
37.091549677949139152 36.131474555558206418 35.184028396827123686 34.249206865747055417 33.327005930883444762 32.417421845458811447 31.520451129052222683 30.636090550726194692 29.764337113402479673 28.90518803934163472 28.058640756591962884 27.224692886297216177 26.403342230769176524 25.594586762238773048 24.798424612225364427 24.01485406145921786 23.243873530318534648 22.485481569734933061 21.73967685254490334 21.006458165253999226 20.285824400201740048 19.577774548103285213 18.882307690963305191 18.199422995342970921 17.529119705978732924 16.871397139737556614 16.226254679908524992 15.593691770815167885 14.973707912750455762 14.366302657218666283 13.771475602480101941 13.189226389390253047 12.619554697520742437 12.062460241557458218 11.517942767958965433 10.986002051870817908 10.466637894278232324 9.9598501193915147667 9.4656385722455773646 8.9840031165086813303 8.514943632480379776 8.0584600152749708002 7.6145521731700620549 7.1832200261164578237 6.7644635043899450366 6.3582825473823030293 5.9646771025126774646 5.5836471242554521766 5.2151925732718504847 4.8593134156355759501 4.5160096221466892175 4.185281167721496054 3.8671280308556297278 3.5615501931485282761 3.2685476388871084197 2.9881203546782044711 2.7202683291298468404 2.4649915525690815343 2.2222900168007320154 1.9921637148928474925 1.7746126409953122405 1.5696367901784735732 1.3772361582985295225 1.1974107418767427902 1.0301605380001774837 0.87548554423306468308 0.73338575854257592734 0.60386117923675763919 0.48691180490803254166 0.38253763438949478504 0.29073866671410847351 0.21151490108320616934 0.14486633683717162202 0.090792973433693732743 0.049294810426236151946 0.02037184744943711795 0.0040240842031116202254 1.6473942847967847151e-08 1.3088115846280303621e-08 1.0380651787184845094e-08 8.2193930571051533053e-09 6.4971400320920114157e-09 5.1270999434880592893e-09 4.0391329408610314857e-09 3.1766623584685373787e-09 2.4941366829929755425e-09 1.9549491806550106434e-09 1.5297359753562909801e-09 1.1949865346847242431e-09 9.3191187238898446008e-10 7.2552389987805578846e-10 5.6388875259193252152e-10 4.3752181321120127101e-10 3.3889908076146946174e-10 2.6206268994224900218e-10 2.0230375259203416352e-10 1.5590728897097548601e-10 1.1994782462288806286e-10 9.2125860613269894062e-11 7.0637274578837112128e-11 5.4069124453696919645e-11 4.1316849968860020043e-11 3.1518664905084149027e-11 2.4003259485854690261e-11 1.8248854470182739517e-11 1.3850379145567284614e-11 1.0494229209909316119e-11 7.9378119517077313331e-12 5.9939512633411169123e-12 4.518411651701525134e-12 3.4003236417084387594e-12 2.554531352605401222e-12 1.9158985144471099503e-12 1.4344486350389858456e-12 1.0721734677783800892e-12 8.0002281655064213388e-13 5.9594609554127382048e-13 4.4315149351341830617e-13 3.2898168407051492828e-13 2.4378953591896527649e-13 1.8039410170492359498e-13 1.3321020015319747866e-13 9.8212148656353840792e-14 7.2317217289785924276e-14 5.3131756935569491242e-14 3.8987466693332533279e-14 2.8542452360605615759e-14 2.085376125457108966e-14 1.5232312568555857915e-14 1.1097827728518966835e-14 8.051365214807714157e-15 5.8753205621569406463e-15
37.092919999926550645 36.13270556605697692 35.185132853598389602 34.2501964961340164 33.327891504469242534 32.418213241921421286 31.521157401620865102 30.636719985585941117 29.764897285351452183 28.905685863968546556 28.059082539209839524 27.225084367841841271 26.403688630847319985 25.594892819491498415 24.798694622155004197 24.015091911854767659 23.244082734402770285 22.485665297147136243 21.739837958265514573 21.006599216571338218 20.285947701816006372 19.577882165459083552 18.882401471898660361 18.199504590140165305 17.529190585900053634 16.871458614126940034 16.226307911938334883 15.593737791955492256 14.973747636036499387 14.366336889389968334 13.77150505506331335 13.189251688795147643 12.619576394216858617 12.062478818396435543 11.51795864770514477 10.986015604000023416 10.466649441101990803 9.9598599415611506203 9.4656469136877756654 8.9840101888412178255 8.5149496189538762536 8.058465074283594376 7.614556441371304274 7.1832236211972926299 6.7644665275139805871 6.3582850853499008892 5.9646792296634805197 5.5836489041403423172 5.2151940601190478475 4.8593146556334181341 4.5160106545635638753 4.1852820258814809051 3.8671287429865999208 3.5615507831178110365 3.2685481268382319264 2.9881207575808677035 2.7202686612539239697 2.4649918258922935976 2.2222902413585319259 1.992163899078076561 1.7746127918143066449 1.5696369134694938552 1.3772362589176694314 1.1974108238558334172 1.0301606046806301986 0.87548559837908523917 0.73338580243673445747 0.60386121476050103052 0.48691183360937229097 0.38253765753979940278 0.29073868535565750015 0.21151491606892885988 0.14486634886378807474 0.090792983069298477394 0.04929481813321062722 0.020371853603444001896 0.0040240891088099773124 2.0377964412559037711e-08 1.6189758662762193843e-08 1.2840675400906561559e-08 1.01672380886976001e-08 8.0368427621913135481e-09 6.3421283622768006072e-09 4.9963331835303501437e-09 3.929472930630987124e-09 3.0852012191071814812e-09 2.4182361923224236183e-09 1.8922552754271531542e-09 1.4781763720934658327e-09 1.1527578517846045299e-09 8.9745972448643430388e-10 6.9752001915621298455e-10 5.4120643855570997473e-10 4.1921193181738881269e-10 3.2416672910712324552e-10 2.5024602234779758129e-10 1.9285444990569539537e-10 1.4837325366698621506e-10 1.1395799572883178379e-10 8.7377009898890526874e-11 6.6882512820356639346e-11 5.1108183749213543672e-11 3.8988008977277775309e-11 2.9691590653873107094e-11 2.2573497451462368519e-11 1.7132664346416050882e-11 1.2981168583046742009e-11 9.8189274375996831206e-12 7.4144075064151926567e-12 5.5891921364697202524e-12 4.2061378255635224923e-12 3.1599083148987933304e-12 2.3699312361654867456e-12 1.774386587399631169e-12 1.3262588663831715117e-12 9.896135146467221771e-13 7.3717436296550545422e-13 5.481702495781213467e-13 4.0694429445289201554e-13 3.0156317355429578575e-13 2.2314418703637780296e-13 1.6477856835231102164e-13 1.2148662213394159948e-13 8.9455068144403105506e-14 6.5723006435073650087e-14 4.8226779466005701403e-14 3.5306488781157392421e-14 2.5795719249256170773e-14 1.8842090582064859941e-14 1.3727808852646877934e-14 9.9593907362338456772e-15 7.2676635102246182874e-15
37.094441105876121867 36.134072011940368441 35.186358806530208199 34.251294978284583692 33.328874473911575649 32.419091668124984551 31.521941336034952741 30.637418627701574536 29.765519044583289343 28.90623841765706814 28.059572887008336295 27.225518882721836178 26.404073106929875081 25.595232516889510066 24.798994308992860169 24.015355903616196542 23.244314930744678804 22.48586921630683122 21.740016769180002143 21.006755768820490005 20.286084553495832949 19.578001609086737034 18.882505558447320482 18.199595151298709084 17.52926925465000707 16.871526843726865508 16.226366993403726013 15.59378887012020698 14.973791724279745807 14.366374883110786698 13.771537743982229074 13.189279768160371731 12.619600474989919547 12.062499436489495963 11.517976272339438992 10.986030645252009563 10.46666225670072059 9.959870842997336382 9.465656171691788856 8.9840180382841410278 8.5149562632224391479 8.0584706891766977321 7.6145611785626297063 7.183227611305442295 6.7644698828185454431 6.3582879021889526783 5.9646815905451564532 5.5836508795985313469 5.215195710340586821 4.8593160318818302557 4.5160118004220519694 4.1852829783357758942 3.8671295333662527582 3.5615514379126875788 3.2685486684052289519 2.9881212047543095345 2.7202690298716545314 2.464992129248143371 2.2222904905906455397 1.9921641035014978627 1.7746129592052257706 1.5696370503076766401 1.3772363705927954669 1.1974109148427498628 1.0301606786879011768 0.8754856584746459891 0.73338585115396326408 0.60386125418757718997 0.48691186546440223815 0.38253768323384890193 0.29073870604553136987 0.21151493270127591506 0.14486636221188362028 0.090792993763659055051 0.049294826687023923784 0.020371860433650339911 0.0040240945535442232406 2.4710958077746671262e-08 1.9632208570383208805e-08 1.5571005281652367352e-08 1.2329111439373267626e-08 9.7457273223263119496e-09 7.6906635465911923016e-09 6.0587101499278145376e-09 4.7650019832341514112e-09 3.7412116553846263481e-09 2.9324289683594631734e-09 2.2946080299272613685e-09 1.7924829789545037138e-09 1.3978702861058279621e-09 1.0882877786439484429e-09 8.4583462799964350886e-10 6.5628388297702369498e-10 5.0834952211078257049e-10 3.930947316104642621e-10 3.0345616671478995577e-10 2.3386134793743540291e-10 1.7992205581658028128e-10 1.381890358371472166e-10 1.0595609965788836009e-10 8.1103830423615668011e-11 6.1975384794348198354e-11 4.7278081150147971104e-11 3.6004953041556088326e-11 2.7373330219932650144e-11 2.077560553964158193e-11 1.574137171381475853e-11 1.1906739030266010761e-11 8.9909428299543256502e-12 6.7776294897668894552e-12 5.1004945023359184498e-12 3.8318038201393022174e-12 2.8738528650940064467e-12 2.151676766045507066e-12 1.6082630520446977789e-12 1.2000363516895783157e-12 8.9392072763679673827e-13 6.6472841839000218429e-13 4.9347340070478783121e-13 3.6568495199382374155e-13 2.7059163213576613757e-13 1.9981565436960169371e-13 1.4731848408188769251e-13 1.0847601819026641512e-13 7.9697776654324477213e-14 5.8481303688322065292e-14 4.2813754421122371143e-14 3.1280697321657378754e-14 2.2848509347992491296e-14 1.6646771096394076882e-14 1.2077069226795539495e-14 8.8129964627966247891e-15
37.096115065849616599 36.135575746351712212 35.187707912983555048 34.252503792961149998 33.32995616079415413 32.420058302290804875 31.522803981510179483 30.638187410310514736 29.766203220172659627 28.906846436029475456 28.060112451859335891 27.225997007840547326 26.404496168893789587 25.595606304459273872 24.799324069391918357 24.015646385862641665 23.2445704261884174 22.486093596513150317 21.740213521291174459 21.006928028519187279 20.286235135687835651 19.578133036415461987 18.882620087748410498 18.199694798099695703 17.52935581581703417 16.871601918357946204 16.226432002065660498 15.593845072524025852 14.973840235487260841 14.366416688362484422 13.771573712234323139 13.189310664416224128 12.619626971508271396 12.062522122949053127 11.517995665036300679 10.986047195403168431 10.46667635792362816 9.9598828380319979203 9.4656663584284856938 8.9840266751562403158 8.5149635740203049039 8.0584768673351696577 7.6145663909710421535 7.1832320016857833522 6.7644735747140227744 6.3582910016020068866 5.9646841882608958585 5.5836530532265760129 5.2151975261055154576 4.8593175461897395451 4.5160130612282527451 4.1852840263362640627 3.8671304030334407997 3.561552158393799683 3.2685492642999145474 2.9881216967862767042 2.7202694354675354127 2.464992463035348802 2.222290764824652598 1.9921643284317962497 1.77461314338807985 1.5696372008728753933 1.3772364934706877726 1.1974110149570806882 1.0301607601192614982 0.87548572459873352791 0.733385904758293794 0.60386129756980710948 0.48691190051499089186 0.38253771150541426849 0.29073872881092388543 0.21151495100210801481 0.14486637689900233594 0.090793005530831596972 0.049294836098918735912 0.020371867949033402312 0.0040241005444706301128 2.9478618903066558455e-08 2.3419990144593792306e-08 1.857523003163151212e-08 1.4707854561893597451e-08 1.1626039780565420089e-08 9.1744779402004153865e-09 7.2276601724917343279e-09 5.6843476917373580136e-09 4.4630302174498586176e-09 3.4982033367125565297e-09 2.7373230701583410226e-09 2.1383194633423950994e-09 1.6675713382452794687e-09 1.2982588767085476301e-09 1.0090275160434165569e-09 7.8290539821542867654e-10 6.0642900940193598714e-10 4.689372927932957264e-10 3.6200412230800104209e-10 2.7898188037605657433e-10 2.1463569715778189621e-10 1.6485082894280119582e-10 1.2639896323416035591e-10 9.6751769015296697711e-11 7.3932736381706810088e-11 5.6399777458503461495e-11 4.2951644600344769894e-11 3.265466142331382154e-11 2.4783990815529899739e-11 1.877846646802182321e-11 1.4203990839445416136e-11 1.0725629349062185837e-11 8.0852857311384812035e-12 6.0845691673984574776e-12 4.5711009724373152357e-12 3.428325729315471281e-12 2.5668150613419670742e-12 1.9185566762311759013e-12 1.4315678963879713888e-12 1.0663912087320238405e-12 7.9297919787519561642e-13 5.8868273213202387186e-13 4.3623914953032088179e-13 3.2279879942919141852e-13 2.3836750910798156374e-13 1.7574168654078046116e-13 1.2940506756361310828e-13 9.5074435296224838717e-14 6.9764517367531430156e-14 5.1074116435575721712e-14 3.7315904638443076837e-14 2.7256834692427156924e-14 1.9858550990196477478e-14 1.4407184051710896525e-14 1.0513350524221344827e-14
37.097944201967905542 36.137218847925097975 35.189182031852709542 34.253824600875930173 33.331138047217862663 32.421114465673397831 31.523746514576906463 30.639027379845497734 29.766950741718282814 28.90751074387151931 28.060701964623358862 27.226519389987103636 26.404958388367376187 25.596014686718390863 24.799684348024332081 24.015963749970669738 23.244849564712911416 22.486338739651792196 21.740428479155930575 21.007116227169134959 20.286399650666538719 19.578276623916433863 18.88274521352757418 18.199803664249941448 17.529450385516728517 16.871683938702414451 16.226503025087978926 15.593906474508987259 14.973893234679847453 14.366462361169570983 13.771613008015677337 13.189344418957963612 12.619655919268957689 12.06254690816536268 11.518016851771879061 10.986065276620754716 10.466691763656870151 9.9598959427296911429 9.4656774875400930824 8.9840361110237498821 8.5149715611375906832 8.058483617032171864 7.6145720855763219248 7.1832367982172398158 6.7644776081439550453 6.358294387739205078 5.9646870262890248071 5.5836554279349268626 5.2151995098450907307 4.8593192005847480885 4.5160144386703269248 4.1852851712861651734 3.8671313531526001483 3.5615529455258276847 3.2685499153201544864 2.988122234335568006 2.7202698785846304297 2.4649928277008270605 2.2222910644277322767 1.9921645741701365928 1.7746133446094762842 1.5696373653666855219 1.3772366277158705206 1.1974111243328708909 1.0301608490837417254 0.87548579683988281275 0.73338596332149785795 0.60386134496527599236 0.48691193880806821204 0.38253774239234883403 0.29073875368231599792 0.21151497099592850293 0.14486639294480907481 0.090793018386571375244 0.049294846381496823517 0.020371876159655678135 0.0040241070896105644861 3.4687330400747629945e-08 2.7558174918452194703e-08 2.1857372064644043678e-08 1.7306652400738201554e-08 1.3680297723050014453e-08 1.0795558250422959113e-08 8.5047483806337182064e-09 6.6887409855835576692e-09 5.2516233618909350692e-09 4.1163168234312179811e-09 3.2209931556962215355e-09 2.5161488722935794915e-09 1.9622221160627272038e-09 1.5276541529699833789e-09 1.1873171853435288971e-09 9.2124052022142948322e-10 7.135817141782231718e-10 5.5179595970045483385e-10 4.2596828009652005377e-10 3.2827645995889220093e-10 2.5256065644388499049e-10 1.9397907302664618865e-10 1.4873297196576878113e-10 1.1384727991738699709e-10 8.6996248436286024921e-11 6.6365311114664487615e-11 5.0540966387417584059e-11 3.8424562336195402625e-11 2.916318707720696774e-11 2.2096519269479171646e-11 1.6713758699187357771e-11 1.2620789668443734354e-11 9.5139117063455294396e-12 7.1596794169980503553e-12 5.3787896307820160396e-12 4.0340922230717441496e-12 3.0203573098319652141e-12 2.2575551969654317622e-12 1.6845181507216049396e-12 1.254816730251827695e-12 9.3309430543656690032e-13 6.9269976631553741616e-13 5.1332023251799781309e-13 3.7983559008384379624e-13 2.8048575037747887396e-13 2.0679428587586734065e-13 1.5227023856588560806e-13 1.1187357046088161672e-13 8.2091527812585691782e-14 6.0098634780000909204e-14 4.3909421853238968948e-14 3.2072969005842977142e-14 2.3367448847113642462e-14 1.6952855045944918923e-14 1.2371002330824510746e-14
37.099931105735265646 36.139003636226142646 35.19078323732652791 34.255259254946906822 33.332421786707577382 32.422261632258610575 31.524770247695926173 30.639939703581461572 29.767762646123092196 28.908232261137769115 28.061342240462792574 27.227086750531931614 26.405460402875021941 25.59645822632955614 24.800075640798763033 24.016308432403441486 23.245152729916412682 22.486604982373986417 21.74066193779356837 21.007320622924979148 20.286578323991879103 19.578432568373852263 18.882881107203793647 18.199921898844308998 17.529553093227296046 16.871773017028370845 16.226580159664266034 15.593973160086173735 14.973950794359470962 14.366511964002407709 13.771655685067361929 13.189381077943275855 12.619687357852784615 12.062573826024857837 11.518039861510651178 10.986084913622123693 10.466708494959229725 9.9599101750029745972 9.4656895742381710335 8.9840463587834218373 8.5149802354906043433 8.0584909474925510153 7.6145782701611528509 7.1832420074549974132 6.7644819886205524995 6.3582980652280847167 5.9646901085079857552 5.5836580069688226402 5.2152016642702401228 4.8593209973276936253 4.516015934630629225 4.1852864147501120939 3.8671323850221108742 3.5615538003844200432 3.2685506223555917948 2.9881228181367625041 2.7202703598284734277 2.4649932237429039716 2.2222913898093001883 1.9921648410523267181 1.7746135631443886727 1.5696375440138914392 1.3772367735117927445 1.1974112431195853556 1.0301609457029132777 0.87548587529681287656 0.73338602692360344015 0.6038613964387509192 0.48691198039596250702 0.38253777593686022485 0.29073878069369502031 0.21151499271005932967 0.1448664103712307416 0.090793032348446003899 0.049294857548809530023 0.020371885076737143716 0.0040241141979080853955 4.0344210374898577026e-08 3.2052417800655549486e-08 2.5421916490519754916e-08 2.0129056262783719041e-08 1.59113083324582463e-08 1.2556119714417060111e-08 9.8917199397324513069e-09 7.7795543873457027286e-09 6.108068716260239592e-09 4.7876140923655140346e-09 3.7462792309213039382e-09 2.9264875168877044165e-09 2.282225265454327077e-09 1.7767870804390646182e-09 1.3809472721259930489e-09 1.0714782865716661355e-09 8.2995406264966702595e-10 6.4178396027687977947e-10 4.9543604831902680251e-10 3.8181244866686232324e-10 2.9374875885333338867e-10 2.2561357238842471004e-10 1.7298864570057346108e-10 1.3241372447079226501e-10 1.0118377249585185377e-10 7.7188300209973899767e-11 5.8783289355388231953e-11 4.4690917637950506292e-11 3.3919178579681227592e-11 2.5700064300467693803e-11 1.9439472255021930076e-11 1.4679013560731853084e-11 1.1065459659963461349e-11 8.3272944097452788117e-12 6.2559735170916792343e-12 4.6919801378015437293e-12 3.5129232856269066737e-12 2.6257218621756689729e-12 1.9592327760255188836e-12 1.4594547792562458624e-12 1.0852652110343491893e-12 8.0566664451150711712e-13 5.9703353372325988401e-13 4.4177994595930003689e-13 3.2622793355610617151e-13 2.4051871605492963233e-13 1.7710277688827835937e-13 1.3011813848610818086e-13 9.5479180117785007845e-14 6.9899641630411369368e-14 5.1070259132763341353e-14 3.7303493627408503554e-14 2.7178259642825590954e-14 1.9717560917343672517e-14 1.4388490399142520382e-14
37.102078658019635782 36.1409326895667391 35.192513834762685576 34.256809814433175632 33.333809216789724417 32.423501439945916047 31.525876639191466211 30.640925678450606995 29.768640085409376894 28.909012009873094939 28.06203418496517088 27.227699890837733676 26.406002920613058649 25.596937548310819466 24.800498498567293382 24.016680917970280262 23.245480347878910266 22.486892698606766317 21.740914224884214434 21.00754150251690433 20.286771406188201183 19.578601088349049775 18.883027959164259357 18.200049667474193171 17.529664082751903464 16.871869278023975625 16.226663513739868705 15.594045222559666186 14.974012995047637276 14.366565566241016327 13.771701803074387627 13.189420692634882926 12.61972133121807893 12.06260291416162822 11.518064726420341515 10.986106133858138278 10.466726575218359585 9.9599255547453200421 9.4657026354164806037 8.984057432758202566 8.5149896092028320993 8.058498868961276429 7.6145849533688503286 7.1832476366791340183 6.7644867222655733485 6.3583020392079063754 5.9646934392251038659 5.583660793932367028 5.2152039923916673203 4.8593229389294201326 4.516017551199665192 4.18528775846575396 3.8671335000839301976 3.5615547241641696274 3.2685513863942468049 2.9881234490056693964 2.720270879871558023 2.4649936517150106141 2.2222917414240455081 1.9921651294513078589 1.7746137992981978471 1.5696377370641347859 1.3772369310621892513 1.1974113714832157473 1.0301610501117919316 0.8754859600791591312 0.7333860956534876685 0.60386145206216046422 0.48691202533678845654 0.38253781218582333379 0.29073880988280642601 0.21151501617484372297 0.14486642920261891265 0.090793047435965751335 0.049294869616461990669 0.02037189471273847044 0.0040241218792962862513 4.6457163716029289144e-08 3.6908999019401395044e-08 2.9273844382290461436e-08 2.3179010158227294934e-08 1.8322189209574643031e-08 1.4458622530143789382e-08 1.139051299545748919e-08 8.958312193066592095e-09 7.0335630721049286596e-09 5.5130332102468860812e-09 4.313915327406650236e-09 3.369908801854746585e-09 2.6280279568768837302e-09 2.0460057959545912769e-09 1.5901883538970546169e-09 1.2338286386074040182e-09 9.5570867282838639346e-10 7.3902704320731892512e-10 5.7050450081232789396e-10 4.3966465736495596716e-10 3.382575603898968199e-10 2.5979853288511083958e-10 1.9919987916949919068e-10 1.5247704731218389029e-10 1.1651513412021534509e-10 8.8883868723550770547e-11 6.769013127622868633e-11 5.1462483895355263002e-11 3.9058611316543781944e-11 2.9594137132890515556e-11 2.2384940402489251383e-11 1.6903177175471710105e-11 1.274209771566333727e-11 9.589045763727400923e-12 7.2038784027924111768e-12 5.4029088020744100036e-12 4.0452012974246722314e-12 3.0235711457199555327e-12 2.2560956568457814468e-12 1.680591315709968234e-12 1.2497045573662386566e-12 9.2774122594824982788e-13 6.8749603360391013085e-13 5.0871842772160140161e-13 3.7565797849234678105e-13 2.7696210339152438448e-13 2.0393738336876554869e-13 1.498336342202650031e-13 1.0994618210701138678e-13 8.0490832854151585138e-14 5.8808422987465104989e-14 4.2955717660407953317e-14 3.1296308581153613009e-14 2.2705165049071788212e-14 1.6568633954727861596e-14
